ply
format ascii 1.0
element vertex 69
property float x
property float y
property float z
property uchar red
property uchar green
property uchar blue
end_header
0.427027 -0.270462 10.0298 245 212 151
0.193041 -0.197757 10.3176 207 179 138
0.193041 -0.197757 10.3176 207 179 138
-1.27232 0.582532 13.0562 24 15 11
0.85973 0.160023 10.1297 132 95 44
1.03631 0.440889 10.2832 239 197 133
0.937309 0.418005 10.1499 38 21 3
0.678538 0.496526 10.6073 248 208 146
0.933695 0.210638 10.1375 150 110 77
0.425981 0.46884 10.9046 93 71 51
1.09464 0.224869 10.067 97 63 23
1.12665 0.178958 10.0155 230 194 138
0.10838 0.139243 10.853 21 10 0
1.12482 0.119875 9.9753 213 176 118
1.46974 0.0986299 9.5428 161 135 98
1.46974 0.0986299 9.5428 161 135 98
1.11434 -0.0947723 9.81927 206 173 121
-0.0222354 -0.287202 10.2941 115 75 38
-0.448295 -0.309953 10.6327 255 228 168
-0.024316 -0.321288 10.2589 255 249 175
-0.70608 -0.449559 10.7757 140 97 40
-1.20503 0.528029 12.7669 236 190 136
0.991649 0.420424 10.2833 231 198 140
0.386444 0.398912 10.7516 217 179 132
-0.0514153 0.29164 11.0005 166 119 57
-0.755372 0.26239 11.8239 169 123 60
1.09767 0.27136 10.0956 119 82 32
1.09767 0.27136 10.0956 119 82 32
1.09007 -0.0735073 9.86479 88 54 9
1.11264 -0.0932524 9.80501 206 173 121
-0.270474 -0.237875 10.6171 214 181 131
1.09975 -0.201436 9.68709 188 159 105
-0.290687 -0.286135 10.5205 210 176 119
0.0672499 -0.226955 10.357 59 35 2
1.22937 0.440363 10.1107 204 179 138
0.846097 -0.196019 9.81159 193 167 127
0.408838 0.3504 10.6453 235 199 153
-0.786212 0.242039 11.864 254 220 163
-0.786212 0.242039 11.864 254 220 163
0.81937 0.232715 10.2477 148 108 60
0.81937 0.232715 10.2477 148 108 60
1.17365 0.136615 9.9003 174 141 100
1.08672 -0.103635 9.83779 110 76 27
0.798655 -0.233114 9.82097 203 175 123
0.798655 -0.233114 9.82097 203 175 123
1.19576 0.149846 9.85842 78 51 13
0.786165 -0.219401 9.85233 113 82 36
0.826122 -0.0432635 10.0135 242 204 144
0.927187 -0.183092 9.84128 190 155 95
1.15999 -0.0417091 9.74586 171 142 101
0.162272 -0.277759 10.1792 185 146 80
-1.28022 -0.465149 11.0581 185 145 86
1.28775 -0.139777 9.64566 80 50 10
1.28888 -0.163224 9.57368 143 116 82
0.00774044 0.283902 10.9378 194 149 91
1.09703 0.188196 10.0504 114 81 34
0.436524 0.436499 10.818 33 17 1
1.11683 -0.040556 9.85221 212 178 122
1.362 0.319699 9.98904 109 72 25
1.362 0.319699 9.98904 109 72 25
0.854601 0.456853 10.3885 142 103 48
1.06128 0.134123 10.0281 205 168 111
0.432995 -0.318776 10.016 254 229 162
1.12754 0.248477 10.0597 223 182 124
1.16489 -0.00127793 9.78247 172 141 104
1.16736 0.03035 9.81215 178 146 107
1.27504 -0.189262 9.55638 126 102 72
1.49749 0.378657 9.97584 112 81 38
1.01593 -0.17486 9.80101 185 148 91
