ply
format ascii 1.0
element vertex 141
property float x
property float y
property float z
property uchar red
property uchar green
property uchar blue
end_header
1.18898 -0.303774 11.8438 228 192 131
1.22401 -0.331948 11.8529 38 11 0
1.32151 -0.268716 11.735 227 194 144
1.12877 -0.677096 12.3154 155 133 105
1.09597 -0.674271 12.3171 168 147 112
0.589094 -0.675901 12.4956 91 63 18
-0.351518 -0.658582 12.4751 84 52 8
1.98617 -0.336485 11.6623 138 116 75
-0.273199 -0.58392 12.4247 183 158 120
0.28449 -0.488579 12.4774 42 25 6
1.13797 -0.289806 11.7952 238 198 134
0.778997 0.0953091 11.2807 255 222 161
1.35111 -0.537411 12.0963 95 64 17
1.78353 -0.489106 11.6293 156 135 98
0.827475 -0.719246 12.5425 237 203 137
1.40138 -0.99648 12.7362 3 0 0
0.395986 0.0708931 11.4776 22 11 0
-0.366038 -0.586092 12.4193 216 186 122
0.0596683 -0.600194 12.4607 62 30 0
0.757689 -0.570007 12.2157 220 192 132
1.77228 -0.130952 11.3824 40 25 8
0.741787 -0.780795 12.6703 254 232 170
-1.02162 -0.305408 11.2124 160 119 64
-0.755154 -0.00768447 11.2099 54 27 0
0.93539 -0.805291 12.6381 243 214 150
-1.11381 -0.778367 11.916 158 115 56
1.52557 -0.0884786 11.3591 86 60 23
-0.351652 -0.631845 12.4476 110 82 43
-1.0868 -1.08223 12.5557 137 99 43
-0.757608 -0.0721016 11.3034 96 60 28
0.959058 0.0340411 11.2886 41 23 8
-0.129074 0.381576 13.9134 154 126 90
-0.444531 0.3882 13.7109 144 115 72
0.933357 -0.0839772 11.4887 212 179 131
1.502 -0.086767 11.3545 98 69 27
1.36905 -0.0543596 11.3094 212 190 142
-0.808935 0.0427189 10.8867 240 208 158
1.38495 -0.141005 11.3435 22 11 5
1.73353 -0.189964 11.4766 41 20 0
-1.21908 -0.465401 10.9953 254 226 162
0.350759 -0.699484 12.5892 255 254 203
-1.22826 -0.618043 11.2931 246 211 148
0.933896 -0.0571335 11.4813 67 39 1
0.372409 0.100244 11.4718 134 109 79
-0.656447 0.306977 12.4733 208 174 129
1.25974 -0.292821 11.8261 208 172 120
1.33361 -0.338049 11.7823 221 188 136
-1.26104 -1.43434 13.1272 255 230 160
1.11677 -0.337809 11.8739 51 21 1
-0.564385 0.469875 13.5607 183 158 128
0.365263 -0.775632 12.7145 21 2 0
0.753119 -0.833241 12.6733 25 10 0
0.439921 0.104424 11.4431 134 107 75
0.774343 0.0984741 11.2619 252 219 162
1.36005 -0.834133 12.5032 211 183 117
1.08412 -0.805935 12.5381 210 182 121
0.97693 -0.805458 12.6013 233 202 134
1.69933 -1.16924 12.5977 201 173 111
1.74087 -1.04948 12.2419 66 52 26
1.44985 -0.0647822 11.2836 194 159 105
0.480472 0.0102118 11.4742 159 131 102
1.02816 -0.680515 12.3783 86 57 17
0.420186 0.00862386 11.4936 208 174 133
1.42491 -0.829337 12.4886 204 175 113
0.829016 -0.811102 12.6036 255 241 168
-0.335031 -0.614396 12.4374 75 43 1
-0.217352 -0.579336 12.4324 203 174 127
-0.11602 -0.576771 12.4322 217 193 151
0.136399 -0.602683 12.4598 71 45 10
-0.395835 -0.560772 12.393 58 30 0
0.00589605 -0.570182 12.4276 214 177 119
0.0921091 -0.571274 12.4311 215 187 135
-0.252149 -0.55814 12.4117 47 21 0
0.495872 -0.564804 12.405 186 154 102
0.658465 -0.718523 12.5984 213 184 126
1.65346 -1.08935 12.4644 71 50 18
-1.26881 -0.535374 10.9796 65 43 25
1.42318 -0.825935 12.4672 201 172 113
0.923978 -0.865895 12.6784 9 4 0
1.58394 -1.04574 12.4303 170 146 91
1.35292 -0.659671 12.3119 34 17 0
0.92455 -0.108358 11.5355 60 33 0
1.0953 -0.624746 12.2758 34 17 2
-0.0513318 -0.575021 12.4878 33 15 0
-0.707978 -0.50961 12.3178 62 33 5
0.0754649 -0.687669 12.5167 110 77 33
-0.857618 -0.125784 11.2007 116 72 23
-0.749577 0.0895518 11.1243 41 25 12
0.653055 0.0535432 11.3335 31 22 18
0.762779 -0.496745 12.1727 37 19 1
0.239733 -0.732149 12.6164 211 178 115
-1.16568 -0.195045 10.3312 109 75 35
-1.17827 -0.150331 10.2161 246 211 155
1.0564 -0.05676 11.4107 46 25 0
1.70043 -0.837098 12.1145 158 138 105
-1.20356 -0.703891 11.4885 122 86 38
1.58223 -0.116451 11.3826 206 171 121
1.05452 -0.36676 11.8504 236 203 146
-0.931037 -0.00149469 10.6452 251 217 164
-1.10294 -0.249313 10.7677 179 140 85
1.07081 -0.185888 11.6064 146 110 60
1.77012 -0.170923 11.3799 147 129 98
1.56047 -0.15361 11.4951 106 77 34
-0.742521 -0.104548 11.3579 235 194 149
1.03935 -0.452206 12.0578 138 105 55
-0.833765 0.200971 10.9235 36 21 3
1.02498 -0.480405 12.0821 227 198 147
0.127684 -0.553639 12.4297 72 43 1
0.821063 -0.485826 12.1837 216 184 123
1.68468 -0.493341 11.8405 118 99 75
-1.32859 -1.00926 12.0496 53 37 25
0.250977 -0.523887 12.4725 123 99 65
-0.414858 -0.483849 12.4004 82 48 16
1.29488 -0.146803 11.4741 222 186 129
-0.329521 -0.680805 12.5075 237 202 148
1.5528 -0.857558 12.1584 184 156 104
1.37601 -0.497143 12.0469 212 180 126
-0.233096 -0.485146 12.465 52 22 1
0.92618 0.0685999 11.2749 101 70 31
0.582407 -0.633556 12.4417 195 169 112
0.8775 0.0877972 11.2375 243 207 148
0.00180336 0.118972 11.457 121 104 83
1.64836 -0.64609 12.0799 132 107 79
0.0144409 0.141857 11.4663 45 27 8
0.287378 -0.688323 12.5204 164 126 66
1.20905 0.000568571 11.3926 63 44 24
1.03543 -0.267639 11.7157 250 214 155
1.65345 -0.785649 12.204 50 35 17
-0.850149 0.0777835 10.7513 229 193 144
1.62339 -0.0666081 11.3247 85 63 28
1.20832 0.00219043 11.3786 63 44 24
1.60655 -0.698475 12.2159 64 40 8
-1.11953 -0.0551455 10.2337 244 202 141
1.38534 -0.739001 12.3655 90 63 23
-0.736249 -0.727213 12.5007 162 122 68
1.89577 -0.711458 11.6648 82 64 24
-0.424959 -0.0742397 11.4807 172 134 83
-1.05378 0.366617 10.7595 144 120 84
-0.38714 0.364404 13.6579 79 53 17
1.548 -0.301592 11.572 205 171 124
1.30734 -0.211829 11.6247 219 185 128
