ply
format ascii 1.0
element vertex 129
property float x
property float y
property float z
property uchar red
property uchar green
property uchar blue
end_header
<<<<<<< HEAD
0.0180105 -0.011757 0.979579 255 255 207
0.172903 -0.0169365 0.974757 188 158 96
-0.113865 0.0750036 1.08178 250 216 163
0.0935726 -0.00789333 0.987233 188 165 130
0.0904651 -0.00766182 0.987402 185 160 121
0.151093 -0.0334034 0.954068 17 11 1
-0.116307 -0.0780733 0.883357 255 246 172
-0.0414768 -0.00164989 0.989463 178 153 112
0.181732 0.0197944 1.02318 19 11 1
0.00182948 -0.0213344 0.966277 9 3 0
-0.105703 0.079117 1.09026 38 24 11
0.091288 -0.00242472 0.994341 36 17 1
-0.0835117 -0.036411 0.941525 247 221 159
-0.0938599 -0.0520837 0.919822 242 212 145
0.101968 0.0686478 1.08568 45 24 1
0.0591045 0.00331231 0.999659 213 187 126
-0.0828529 -0.0079461 0.978821 65 39 15
0.178564 -0.013057 0.979976 203 175 124
0.0399627 -0.013412 0.978499 196 157 93
0.00744538 -0.015095 0.974464 215 179 108
-0.0796404 -0.0218098 0.961228 238 197 127
0.11208 -0.0237948 0.968013 213 181 117
0.0544499 -0.0241898 0.965034 30 13 0
0.0689976 -0.0255384 0.963757 22 6 0
0.0271197 0.0827401 1.10186 25 13 3
-0.103777 0.0660224 1.07255 56 30 5
0.117151 0.0644118 1.08104 239 200 136
0.10321 0.0627277 1.07791 233 200 137
0.116302 0.0361983 1.04566 198 161 113
0.124084 0.0316169 1.03911 218 185 137
0.100192 0.030677 1.0373 50 21 0
0.0791245 0.0610894 1.07548 113 74 30
0.16552 0.00514874 1.00477 160 143 108
-0.00220897 -0.00221494 0.990695 71 45 12
0.113903 -0.0112492 0.984111 207 182 129
0.139091 0.0706944 1.08962 213 189 145
0.153881 -0.0157657 0.978075 152 130 94
0.0539095 -0.0185593 0.97219 255 241 178
0.149144 -0.0231783 0.967922 161 139 105
0.123767 -0.0322251 0.957074 176 155 114
0.107394 0.0724776 1.09118 230 202 152
0.0875035 0.0677674 1.08419 58 32 0
0.0328111 0.0660591 1.07952 250 216 164
0.0852672 0.0605456 1.0747 57 28 0
-0.0866412 0.0575366 1.06228 152 114 63
0.124468 0.0398493 1.05033 229 194 144
-0.0694636 0.0274124 1.03428 84 45 5
0.119327 0.00758722 1.00847 91 58 13
-0.0503168 -0.00213275 0.988311 218 185 122
-0.122207 -0.0243748 0.951053 157 116 56
0.0323274 0.0874637 1.10852 132 107 79
0.0296862 0.0744569 1.09063 212 175 126
-0.113269 0.050175 1.05021 122 74 30
0.0716623 -0.0212984 0.969819 250 228 162
0.108776 0.0454077 1.05648 131 94 47
-0.104179 0.0421978 1.04046 122 84 40
0.0911499 0.044005 1.05329 141 107 57
0.108547 0.0348779 1.04337 230 193 133
0.000256849 -0.0158211 0.973518 223 188 124
0.0323776 0.00242742 0.998687 175 146 99
-0.0147691 0.000728456 0.993974 214 175 120
-0.0535154 0.000148816 0.991317 63 35 1
-0.0264448 -0.000313132 0.991998 215 193 150
-0.0471423 -0.00503243 0.984673 77 44 2
-0.0360434 -0.000859565 0.990752 207 178 129
-0.0179601 0.0869538 1.10588 120 103 84
0.0833837 -0.00846012 0.986321 80 50 13
0.120654 0.077054 1.09816 66 46 24
-0.0130867 0.059799 1.06936 161 119 69
0.155463 0.065803 1.08447 92 61 26
0.00858036 0.00590579 1.00274 117 94 68
0.0837372 -0.0200681 0.97164 113 83 30
0.166255 0.0620664 1.08045 124 92 48
0.111853 -0.0381523 0.948879 6 2 0
0.0882696 0.0908023 1.11389 230 198 153
0.120964 0.0516199 1.06517 144 108 59
0.0873073 0.0135098 1.01455 226 196 143
0.174677 0.0519449 1.06772 41 21 1
0.0844239 0.0163721 1.01836 121 86 40
0.124942 0.0465229 1.05947 232 193 140
0.0848789 -0.010781 0.983275 181 156 118
0.0874429 0.0197653 1.02265 230 197 138
0.0731804 0.0898714 1.11213 250 214 152
-0.127611 0.0268155 1.01763 161 117 64
0.0858599 0.0316703 1.03818 113 79 35
0.0407585 -0.00879763 0.984215 95 67 21
-0.0166682 0.0900568 1.11026 48 33 11
0.167789 0.0690709 1.0895 90 66 32
0.0940031 0.0398032 1.04813 241 204 148
0.169355 0.0352515 1.04553 120 103 77
-0.142527 0.0341222 1.02403 188 148 93
0.164912 0.0343215 1.04491 40 18 0
0.122944 0.0121539 1.01462 212 179 125
-0.101434 0.0155754 1.00648 144 101 43
0.0893582 0.0168878 1.019 149 114 62
0.126721 0.0568912 1.07151 220 181 127
0.140285 -0.0266654 0.964144 59 42 17
0.134465 -0.0230364 0.96521 186 158 104
0.143874 -0.0186504 0.974999 49 34 14
-0.0997102 0.0529106 1.05555 248 203 157
0.156152 0.056541 1.07279 96 64 20
-0.0120933 -0.00712521 0.98351 182 153 94
0.118405 -0.0229949 0.969135 199 168 109
-0.0204267 -0.00765444 0.982339 154 125 77
0.157481 0.0137109 1.01721 118 99 75
0.152989 0.0659915 1.08459 101 67 26
-0.0820429 -0.0132625 0.971679 247 209 145
-0.048544 -0.00677169 0.982189 101 71 35
0.0989232 -0.00162378 0.996176 163 130 77
0.0660077 0.0122761 1.01235 217 184 125
-0.0843591 0.00359419 0.994766 62 36 11
-0.120615 0.0795842 1.0875 209 174 125
0.0897998 0.0863662 1.1083 97 68 25
0.093636 0.0267568 1.03186 241 207 148
0.157474 -0.047735 0.934971 183 160 113
0.0885846 0.0326225 1.03886 104 72 36
0.151125 0.0728198 1.09346 192 159 106
0.148697 -0.0498895 0.932239 227 210 157
-0.129655 0.0690233 1.07144 249 216 160
-0.155998 0.0597526 1.05641 250 205 145
0.161017 0.0619685 1.07983 208 174 120
0.14828 0.0611878 1.07809 216 178 126
-0.133206 0.00749531 0.99076 160 117 56
0.0935503 0.0273637 1.03212 230 196 140
-0.0834279 -0.0177784 0.965902 163 122 67
0.0405159 -0.00433915 0.989859 184 157 103
0.116898 -0.0143723 0.980455 96 67 27
0.0121544 -0.0105659 0.980321 166 131 67
0.161605 0.0740096 1.09528 196 167 118
=======
0.214778 -0.524134 9.51679 255 255 207
1.39059 -0.484347 8.45622 188 158 96
-0.985158 -0.0194044 11.634 250 216 163
0.823578 -0.462475 9.07732 188 165 130
0.799429 -0.462122 9.09412 185 160 121
1.26094 -0.608207 8.58493 17 11 1
-1.07045 -1.09727 9.64846 255 246 172
-0.306289 -0.490448 10.0129 178 153 112
1.41477 -0.247797 8.53163 19 11 1
0.0736741 -0.600222 9.55254 9 3 0
-0.910858 0.0147219 11.7627 38 24 11
0.804379 -0.426776 9.11859 36 17 1
-0.73171 -0.781718 10.0957 247 221 159
-0.839622 -0.900099 9.93653 242 212 145
0.841826 0.0307763 9.16165 45 24 1
0.546164 -0.394666 9.22538 213 187 126
-0.713429 -0.579995 10.4447 65 39 15
1.42547 -0.456542 8.43828 203 175 124
0.398789 -0.525506 9.3869 196 157 93
0.123519 -0.550326 9.52528 215 179 108
-0.689852 -0.678329 10.2891 238 197 127
0.981968 -0.57104 9.00539 213 181 117
0.51815 -0.592998 9.23768 30 13 0
0.636773 -0.596142 9.154 22 6 0
0.295646 0.101936 9.8002 25 13 3
-0.892658 -0.0767339 11.5225 56 30 5
0.951641 0.00782741 9.08412 239 200 136
0.852546 -0.00410903 9.12898 233 200 137
0.973377 -0.167933 9.13109 198 161 113
1.02523 -0.192605 9.00606 218 185 137
0.853828 -0.204721 9.14611 50 21 0
0.684312 -0.0188695 9.31373 113 74 30
1.33 -0.347498 8.64795 160 143 108
0.0436049 -0.465998 9.66854 71 45 12
0.985299 -0.48074 9.00792 207 182 129
1.09533 0.0473679 8.96046 213 189 145
1.27488 -0.491864 8.70157 152 130 94
0.512722 -0.553351 9.26055 255 241 178
1.24387 -0.542451 8.67655 161 139 105
1.07498 -0.623919 8.89158 176 155 114
0.879812 0.0539329 9.16356 230 202 152
0.741832 0.0225349 9.27228 58 32 0
0.336469 0.00143166 9.61478 250 216 164
0.727479 -0.0207633 9.25233 57 28 0
-0.708008 -0.116794 11.0108 152 114 63
1.02706 -0.142583 9.07087 229 194 144
-0.609612 -0.353848 11.6253 84 45 5
1.01266 -0.351628 9.02478 91 58 13
-0.388981 -0.501457 10.0954 218 185 122
-1.12293 -0.741475 10.5195 157 116 56
0.336705 0.130926 9.81463 132 107 79
0.313602 0.0521107 9.69934 212 175 126
-1.00288 -0.200015 11.4753 122 74 30
0.659619 -0.567565 9.1962 250 228 162
0.906859 -0.1097 9.12031 131 94 47
-0.901027 -0.243091 11.1511 122 84 40
0.775136 -0.120432 9.15252 141 107 57
0.915599 -0.177287 9.14479 230 193 133
0.0614792 -0.563565 9.61706 223 188 124
0.335893 -0.417597 9.49153 175 146 99
-0.0648318 -0.454243 9.79607 214 175 120
-0.418993 -0.489584 10.1714 63 35 1
-0.168773 -0.46913 9.88176 215 193 150
-0.360267 -0.518493 10.0313 77 44 2
-0.256131 -0.481003 9.97133 207 178 129
-0.0634602 0.115869 10.3447 120 103 84
0.745683 -0.470948 9.14224 80 50 13
0.973272 0.0816349 9.14788 66 46 24
-0.0305077 -0.0528587 9.98766 161 119 69
1.21455 0.020274 8.91395 92 61 26
0.138664 -0.408547 9.72954 117 94 68
0.75505 -0.553483 9.12839 113 83 30
1.29537 -0.00122619 8.89536 124 92 48
0.984626 -0.669642 8.91095 6 2 0
0.736572 0.158346 9.29834 230 198 153
0.991734 -0.0699628 9.09075 144 108 59
0.764973 -0.319729 9.16201 226 196 143
1.36314 -0.0601345 8.84485 41 21 1
0.74319 -0.302483 9.20399 121 86 40
1.0291 -0.101724 9.11652 232 193 140
0.757713 -0.485925 9.1187 181 156 118
0.763753 -0.278958 9.18457 230 197 138
0.632213 0.150733 9.41822 250 214 152
-1.18354 -0.393854 11.4886 161 117 64
0.747737 -0.202368 9.23714 113 79 35
0.403979 -0.490481 9.36965 95 67 21
-0.0517305 0.135987 10.3666 48 33 11
1.29771 0.0398724 8.89295 90 66 32
0.79938 -0.146871 9.14631 241 204 148
1.34153 -0.161719 8.81479 120 103 77
-1.36323 -0.368102 11.8864 188 148 93
1.31922 -0.169959 8.88834 40 18 0
1.03698 -0.320678 9.02604 212 179 125
-0.888507 -0.430778 10.8499 144 101 43
0.779454 -0.297233 9.16592 149 114 62
1.02265 -0.035816 9.01361 220 181 127
1.18975 -0.574096 8.77577 59 42 17
1.11278 -0.533281 8.55161 186 158 104
1.21324 -0.519611 8.81322 49 34 14
-0.851841 -0.163726 11.2553 248 203 157
1.23179 -0.0352095 8.92741 96 64 20
-0.0437603 -0.504999 9.68499 182 153 94
1.02936 -0.562317 8.96774 199 168 109
-0.117403 -0.514145 9.74207 154 125 77
1.28116 -0.300303 8.82813 118 99 75
1.19815 0.0208055 8.92937 101 67 26
-0.706396 -0.615824 10.3531 247 209 145
-0.37385 -0.531409 10.0187 101 71 35
0.866162 -0.420871 9.12358 163 130 77
0.602521 -0.335793 9.29316 217 184 125
-0.730737 -0.506089 10.71 62 36 11
-1.07193 0.00262138 11.9708 209 174 125
0.749553 0.132896 9.28644 97 68 25
0.807227 -0.232093 9.17188 241 207 148
1.31607 -0.702811 8.46869 183 160 113
0.764715 -0.194834 9.18483 104 72 36
1.17886 0.0608509 8.94394 192 159 106
1.25474 -0.722703 8.51534 227 210 157
-1.17763 -0.0843639 11.9635 249 216 160
-1.56954 -0.209933 12.9166 250 205 145
1.25695 -0.00185014 8.89331 208 174 120
1.16985 -0.00795098 8.93778 216 178 126
-1.24447 -0.538061 11.196 160 117 56
0.801978 -0.225672 9.11858 230 196 140
-0.723423 -0.650195 10.3306 163 122 67
0.401586 -0.459471 9.38432 184 157 103
1.01259 -0.502709 9.00784 96 67 27
0.164353 -0.51512 9.50409 166 131 67
1.24883 0.0677807 8.90587 196 167 118
>>>>>>> d2e4b68b001d494587ccb667a77798b9e2786e72
