ply
format ascii 1.0
element vertex 61
property float x
property float y
property float z
property uchar red
property uchar green
property uchar blue
end_header
1.101 1.32268 16.3105 179 150 109
-0.912196 -0.0795848 16.831 209 172 130
-0.938725 -0.0331507 16.8299 72 46 14
-0.376539 -0.087266 16.4987 10 0 0
1.49792 -0.603057 13.6801 150 126 92
0.361649 0.950114 16.4907 107 84 56
1.14043 -0.812492 13.5232 64 43 8
1.14043 -0.812492 13.5232 64 43 8
-0.163992 0.966645 16.9258 150 125 85
1.49792 -0.603057 13.6801 150 126 92
1.68533 -0.622323 13.4751 39 28 3
1.29199 -0.577423 13.5762 48 36 20
0.982581 1.29471 16.2776 60 40 11
-0.00823825 -0.577358 14.174 138 125 95
-1.08776 -0.498009 15.089 101 77 51
-0.993086 -0.503296 15.1563 107 79 45
2.39756 -0.49329 13.9876 161 135 91
2.39756 -0.49329 13.9876 161 135 91
2.37024 0.24019 14.9264 171 145 111
1.69046 -0.560651 13.4789 72 58 36
0.724522 0.0625374 15.4686 152 124 84
-0.437449 0.102677 16.2689 73 45 9
0.776231 0.118839 15.422 177 147 105
0.807727 0.150013 15.4527 72 46 14
0.759935 1.06071 16.147 85 57 22
-0.268686 0.202473 16.1927 107 79 38
-0.268686 0.202473 16.1927 107 79 38
2.35393 0.134444 14.822 176 148 109
0.818651 0.311328 15.6689 90 62 25
2.37661 -0.872042 13.8039 156 132 88
1.50029 0.586672 15.3475 158 128 94
0.663719 0.944863 16.2301 66 40 17
0.834292 1.28682 16.4801 179 145 92
-0.809056 0.100499 16.6691 91 62 15
0.927101 0.283281 15.4571 55 32 6
1.76305 0.276257 14.9549 99 74 38
1.12163 0.960094 15.8715 71 46 17
-1.00115 0.618609 17.4305 152 134 108
0.723395 -0.816121 13.7098 117 101 73
0.954662 1.34626 16.4604 158 128 90
0.803824 -0.676651 13.578 35 21 0
0.803824 -0.676651 13.578 35 21 0
2.45027 -0.620574 13.933 161 139 105
1.60186 -0.595302 13.6316 66 45 14
1.60186 -0.595302 13.6316 66 45 14
-0.984492 -0.424927 15.9971 115 89 54
2.33658 -0.391967 14.4753 152 125 82
1.32471 -0.515437 13.6668 142 123 89
1.48482 -0.540885 13.7168 66 45 20
0.207431 0.0821856 15.7808 86 60 26
0.207431 0.0821856 15.7808 86 60 26
1.65714 -0.193428 14.7397 70 46 14
1.67268 -0.804264 13.4057 41 30 9
1.62218 -0.840882 13.4704 127 107 71
1.13534 0.508412 15.4439 146 118 80
-0.202975 0.205249 16.1249 198 169 124
-0.575116 0.101894 16.3787 172 139 91
1.5668 -0.564578 13.6462 142 120 83
0.497201 -0.612562 13.8655 151 132 91
0.497201 -0.612562 13.8655 151 132 91
0.241208 0.954435 16.523 112 89 58
