ply
format ascii 1.0
element vertex 69
property float x
property float y
property float z
property uchar red
property uchar green
property uchar blue
end_header
0.734373 0.745889 10.1699 169 138 93
0.959263 0.569569 10.0125 142 110 68
0.826638 0.67767 10.0657 7 4 4
1.36996 0.219417 9.73792 12 5 5
-0.500609 -0.63611 10.0652 25 16 10
-0.594742 -0.731331 10.2289 32 26 19
1.39258 0.16178 9.75046 180 154 104
-0.524784 0.0530435 10.0232 85 58 31
-0.660886 -0.300023 9.31466 35 17 2
1.61555 0.130609 9.83006 159 137 106
-0.233866 0.130893 10.0013 67 44 15
-0.213562 -0.57387 9.93829 211 181 128
0.569188 0.520738 10.1572 158 129 90
-0.519699 0.400589 10.2208 182 162 137
-0.525188 -0.0192964 10.0667 71 42 8
0.509511 -0.0298883 9.9513 176 144 105
0.303406 -0.347946 9.19144 161 140 102
0.605042 -0.347082 9.01921 46 29 8
0.13938 -0.529796 9.82781 79 53 7
1.3704 -0.786803 9.72178 147 130 94
1.59467 -0.820843 9.36042 159 145 113
-0.155847 -0.182653 9.25928 149 135 110
0.543833 0.0753779 9.87277 165 137 98
0.554388 0.0480536 9.87567 57 32 4
-0.656735 -0.141332 9.34469 73 49 23
0.912331 -0.252013 9.0994 46 35 18
1.13581 -0.118027 9.68135 59 37 8
0.528481 0.0537333 9.88397 60 34 11
-0.0103191 -0.26585 9.20832 127 108 73
1.17922 -0.27983 9.03728 33 22 3
0.642262 0.557667 10.0795 47 31 12
1.2509 0.34011 9.86618 165 142 104
-0.337759 0.0481049 9.99835 79 53 19
1.60408 -0.0954471 9.72647 173 144 89
1.16486 -0.337695 9.03162 36 23 3
1.45794 -0.499494 9.09439 157 137 92
1.66386 -0.539775 9.30803 159 132 94
-0.568719 0.219885 9.90428 194 161 122
1.61288 -0.000533429 9.75172 179 153 114
-0.411023 0.00370266 10.0537 177 143 95
0.456741 0.0179276 9.90761 172 139 89
-1.03352 0.0634326 9.39559 153 125 92
0.528279 -0.314939 9.04574 118 98 64
-0.736297 0.041273 9.43932 59 38 15
-0.180798 0.0497849 9.97214 69 42 12
0.536464 0.0301022 9.89127 143 117 85
-0.22503 0.0735401 9.97097 61 38 2
0.0142938 -0.291285 9.21584 18 7 0
1.33475 -0.65291 9.63243 135 111 80
-0.94846 -0.513399 9.18906 101 73 35
-1.05015 0.140058 9.36398 21 13 6
0.312454 -0.210284 9.19666 136 122 97
1.2159 -0.28942 8.99644 162 144 101
-0.40922 0.0849389 10.002 187 154 106
-0.444387 0.0762044 10.0037 88 54 13
-0.797545 0.174153 9.62634 91 64 32
0.0670051 -0.269992 9.1906 120 106 77
1.63843 -0.573944 9.26134 75 52 17
1.69657 -0.360622 9.31631 145 126 100
0.19794 0.155163 9.97167 91 63 27
0.571974 -0.295477 9.03708 37 21 0
0.563698 0.0956314 9.87702 72 48 15
0.625655 0.491834 10.1337 134 106 69
1.11738 -0.270364 9.09707 61 42 12
0.509429 0.0333665 9.8904 157 128 85
0.390545 -0.289356 9.12368 108 91 67
0.393927 -0.25563 9.11166 130 111 79
1.20291 0.181866 9.77224 82 59 24
-0.120314 0.132749 9.97526 103 75 37
