ply
format ascii 1.0
element vertex 133
property float x
property float y
property float z
property uchar red
property uchar green
property uchar blue
end_header
-0.454954 0.307121 7.95862 9 3 0
0.667398 0.24316 6.92803 238 193 122
-0.217182 -0.146057 7.12685 213 184 139
-0.162235 -0.141105 7.09753 226 200 152
0.696041 -0.0325419 6.73517 84 53 9
0.252083 0.126226 7.16357 255 225 155
-0.580736 0.15724 7.92236 123 82 47
-0.274168 0.194554 7.58185 255 239 163
0.517527 0.224744 7.01512 117 80 39
0.791483 0.302593 6.92285 196 173 134
0.629625 0.284042 7.00787 220 190 139
0.224001 0.25948 7.24908 220 180 129
0.364452 -0.0604712 6.83039 243 208 142
-0.29783 -0.169912 7.16046 135 96 39
0.790224 -0.237396 6.38821 88 61 15
0.682973 -0.105525 6.66319 84 57 21
0.864982 -0.0978348 6.48648 173 148 112
0.532471 -0.108112 6.69998 203 176 134
0.886666 -0.0620759 6.51493 171 145 108
0.091136 -0.11882 6.95829 205 180 138
-0.0859384 -0.133086 7.0497 226 191 137
0.946696 0.0537076 6.59557 165 141 105
0.0385545 0.0828524 7.29506 22 7 0
0.346346 0.126666 7.02331 120 87 53
0.721427 0.131582 6.84322 232 196 141
0.954707 0.280409 6.85859 185 158 113
0.535403 0.35906 7.13746 224 188 147
-0.176238 -0.359244 7.29342 120 76 12
0.637475 0.154263 6.9006 122 81 52
0.60277 0.286541 7.02031 37 19 3
1.00095 0.277988 6.83898 172 145 103
0.908746 0.320298 6.91068 191 164 126
-0.888032 0.347851 8.496 233 202 160
-0.605883 -0.719364 7.74745 163 147 102
0.038634 0.0792966 7.32231 20 6 0
0.981329 0.0705789 6.58297 27 14 0
0.828732 -0.118265 6.53488 55 33 12
0.259023 -0.175866 6.79112 166 128 70
0.852415 -0.181006 6.37847 78 59 23
0.704539 -0.110913 6.63325 188 159 109
0.118425 -0.508582 7.49754 216 180 106
-0.5582 -0.705856 7.79463 15 6 3
1.05672 0.1589 6.55699 134 119 84
0.702268 0.10953 6.83409 107 71 28
0.803531 0.240418 6.80271 206 173 120
0.726475 0.273382 6.94054 193 154 106
-0.579776 0.238108 8.04888 83 64 53
0.59255 0.150677 6.91851 129 90 55
0.249743 0.296485 7.31789 143 128 108
1.02672 0.260811 6.81233 152 125 96
0.248308 -0.161409 6.80737 239 205 146
0.239732 0.231762 7.20006 255 215 166
-0.0660176 0.188744 7.38456 177 127 66
0.106623 -0.33804 7.15822 255 224 157
0.810737 -0.15561 6.50478 71 48 19
0.869665 -0.183713 6.33214 229 207 151
-0.525416 0.162123 7.83785 185 140 81
0.513445 0.163007 6.96699 144 105 59
-0.0419257 -0.154186 6.97819 229 196 148
-0.0173043 -0.14093 6.98989 80 50 10
-0.0893118 -0.198604 6.95387 255 250 176
-0.466342 -0.637097 7.79134 17 6 2
0.666552 -0.127908 6.64609 210 177 113
0.69975 0.160522 6.87671 93 60 20
0.551252 -0.107795 6.69698 219 187 137
0.00548794 -0.217906 6.89168 192 149 77
0.243602 -0.130459 6.84641 217 182 128
0.720917 0.0927019 6.82147 215 176 121
0.0371417 -0.183898 6.89284 255 248 172
0.25088 -0.192928 6.78217 255 235 166
0.177938 -0.169291 6.83251 255 223 154
0.496311 -0.158454 6.67477 240 205 140
0.81392 -0.178675 6.42954 168 143 104
-0.294362 -0.190015 7.11517 253 213 150
0.132883 -0.159857 6.8617 186 144 80
0.765279 -0.186702 6.43105 201 175 123
0.833925 -0.192333 6.39022 190 164 124
0.526786 0.243368 7.03401 211 175 127
0.713889 -0.00758419 6.72167 214 179 123
0.518394 -0.0146811 6.82506 242 203 139
0.777951 -0.0494512 6.55529 230 200 141
1.05766 0.130939 6.53267 69 49 20
0.755444 0.108292 6.78544 178 146 106
0.543305 0.153734 6.93277 152 112 63
0.80173 -0.0508877 6.60404 201 163 103
0.700862 0.136676 6.86003 115 82 34
0.780929 -0.114828 6.4953 186 153 97
0.680225 0.177434 6.90187 235 191 132
0.72207 0.17683 6.87304 226 185 128
1.02128 0.157391 6.60717 27 14 3
0.882496 0.311801 6.9008 111 80 35
-0.130602 -0.201398 6.96613 255 233 163
0.533981 0.0803528 6.90035 154 117 64
0.522618 0.0665708 6.88821 228 190 136
0.538515 0.306071 7.07411 153 114 58
-0.229204 -0.217032 7.03082 255 255 189
0.761873 0.00571458 6.63403 89 64 28
0.866271 0.283452 6.89469 211 172 120
0.931765 0.119184 6.75007 63 34 5
0.860325 -0.0705826 6.55651 43 27 1
0.881013 0.223789 6.84609 116 79 31
0.666134 0.160219 6.89578 136 98 53
0.744157 -0.167809 6.51961 90 70 34
0.180908 -0.184393 6.82781 172 125 68
0.677232 0.101656 6.84491 205 164 111
0.856748 -0.0453558 6.60629 131 107 78
0.803056 -0.133684 6.53079 180 151 105
0.255502 -0.144377 6.82053 148 111 58
0.21619 -0.135954 6.86504 201 165 103
0.784724 -0.220164 6.40971 200 170 115
0.745917 -0.11156 6.5479 78 55 19
0.817066 -0.095394 6.59275 93 61 17
0.83229 -0.0690298 6.61324 85 54 17
0.738592 -0.213213 6.46252 95 74 37
0.679251 -0.0451769 6.74155 199 163 119
0.744103 -0.0327538 6.6608 173 144 103
0.868521 -0.0231212 6.62061 141 116 86
0.747255 -0.00538803 6.68802 173 144 101
0.220614 0.184429 7.17108 255 235 169
0.747003 -0.112291 6.54438 78 55 19
0.877301 0.248482 6.85684 124 91 41
0.903817 0.0403978 6.66845 125 102 75
0.749945 0.020618 6.70856 172 142 105
0.484765 -0.144307 6.70404 142 107 51
0.516706 -0.151218 6.66631 160 126 68
0.586881 -0.103175 6.71529 193 155 98
0.082372 -0.179016 6.87466 255 255 201
0.0703873 -0.16646 6.88776 195 155 91
0.240161 0.194621 7.15561 195 145 89
0.843352 -0.219082 6.35024 138 114 62
0.759208 0.289039 6.93078 120 97 70
0.342651 0.151193 7.02857 252 214 154
0.647527 -0.0983782 6.70104 184 148 90
