ply
format ascii 1.0
element vertex 89
property float x
property float y
property float z
property uchar red
property uchar green
property uchar blue
end_header
0.310133 -0.100156 3.45901 38 17 2
0.073249 -0.175859 3.5449 16 3 0
-0.43914 -0.24535 3.61082 250 215 151
-0.133591 -0.143048 3.61411 112 79 33
0.207338 0.131343 3.54419 18 8 0
-0.107693 -0.122863 3.62148 196 167 122
0.330624 0.099051 3.48885 51 27 7
0.211521 -0.0826706 3.48532 226 194 134
-0.43759 -0.133189 3.69696 140 103 54
0.259593 0.13103 3.53004 232 192 128
-0.206257 -0.204982 3.63541 27 9 0
0.48956 -0.195624 3.29 228 209 150
0.436709 -0.213719 3.34538 203 177 118
0.366609 0.0807392 3.45112 232 189 120
0.125474 0.115531 3.60289 27 12 1
0.0104894 0.0717176 3.62748 255 228 163
0.302918 0.015176 3.48212 99 64 17
0.399263 0.00224999 3.44875 217 182 128
0.330845 -0.00426547 3.4729 53 25 0
0.268887 0.0733978 3.51567 121 80 37
0.494947 -0.108766 3.34962 158 132 96
0.379331 -0.123185 3.43036 211 178 117
-0.147286 -0.147377 3.6159 254 223 166
0.140243 0.125229 3.60392 155 134 107
-0.24895 -0.160446 3.66462 253 220 150
0.484171 -0.130029 3.34461 164 139 103
-0.09354 -0.150749 3.58827 126 94 55
0.413879 -0.180708 3.39401 182 161 116
0.125411 0.115843 3.60161 27 12 1
0.344547 0.107654 3.48702 232 201 147
0.13047 0.101379 3.57972 216 174 122
0.29216 0.0935918 3.50598 76 44 2
0.13942 0.0833976 3.56594 240 205 155
-0.46135 0.0434041 3.84741 120 82 46
0.307853 0.11355 3.48784 231 195 138
0.286009 0.0752497 3.50363 73 40 6
0.390861 0.0113838 3.45605 97 61 24
-0.127681 -0.132657 3.62303 81 49 2
0.316746 -0.113215 3.44669 206 177 135
-0.453009 -0.109291 3.73398 242 205 137
-0.172945 -0.164354 3.62523 115 77 28
0.129814 -0.101899 3.53781 197 169 113
0.0291908 -0.182288 3.55669 9 3 0
0.302788 0.034655 3.48414 124 88 39
0.0683308 -0.0893126 3.7692 173 141 97
0.355684 0.00492422 3.47478 227 188 128
0.430184 0.0882026 3.42803 21 11 4
0.333722 0.0866379 3.47716 235 193 125
0.385892 0.0391337 3.45596 112 80 38
0.31212 0.0243378 3.47674 235 197 137
-0.466474 -0.0740848 3.77476 255 227 161
0.157948 -0.134968 3.50688 234 203 146
0.386384 0.0552128 3.46439 126 88 41
0.154475 -0.116059 3.51417 211 177 118
0.40025 -0.115522 3.42402 175 148 100
-0.394717 -0.16582 3.67157 160 117 62
-0.126175 -0.148007 3.60676 245 210 147
-0.433018 -0.229392 3.62837 149 109 49
0.289967 0.0855699 3.50164 205 172 131
0.154255 -0.129714 3.50997 108 80 30
-0.375066 -0.0227191 3.77644 177 129 75
0.341102 0.0124089 3.46952 231 189 121
0.375155 0.0491072 3.46639 230 192 134
0.480449 0.0722013 3.43286 97 64 17
0.0199901 -0.130879 3.55662 250 214 153
0.289703 -0.00589206 3.49316 127 93 47
0.286297 -0.119403 3.46229 85 57 15
0.417907 0.00456926 3.434 184 151 104
0.513107 -0.00203638 3.39707 140 113 88
-0.474495 0.0269965 3.85049 244 197 136
0.401316 -0.0552495 3.44391 212 179 123
0.00454849 -0.128286 3.55984 216 184 129
0.435901 -0.241152 3.34554 6 1 0
0.439314 -0.10093 3.36405 206 178 119
-0.257909 -0.175415 3.6613 163 126 70
0.470799 -0.190365 3.32081 176 153 113
0.397566 0.0465636 3.45577 218 179 124
0.519386 0.0301026 3.41149 48 24 0
0.515698 -0.186526 3.28363 178 155 106
0.476619 -0.0861749 3.38803 136 113 83
-0.120048 0.0434538 3.68514 255 244 172
0.452033 -0.175153 3.35243 74 51 11
0.332338 -0.0993247 3.45688 174 138 81
0.477364 0.117265 3.43467 109 77 32
0.52306 0.0231815 3.39911 120 98 74
0.301959 -0.0437406 3.47388 163 129 73
0.498875 -0.03697 3.39584 121 100 73
0.0190514 -0.133695 3.55241 242 205 140
0.327929 -0.148759 3.4375 164 123 60
