ply
format ascii 1.0
element vertex 80
property float x
property float y
property float z
property uchar red
property uchar green
property uchar blue
end_header
1.55227 -0.450791 17.8636 40 21 0
1.15568 -0.387891 17.8991 254 228 174
1.18006 -0.324713 17.7122 36 21 1
1.81988 -0.504414 18.1477 238 215 170
1.72738 -0.556109 18.321 45 26 2
2.7248 -1.704 22.2983 175 158 120
-1.80722 -2.22423 23.8559 248 222 163
2.90909 -1.96086 22.3572 188 165 109
-1.25734 -1.62023 22.8511 238 214 160
1.05793 -0.408972 17.9382 23 11 2
-0.356523 -1.06325 21.4231 49 18 0
1.10449 -0.612153 18.5403 246 215 157
-1.8022 -2.21499 23.7872 248 222 163
-1.3269 -1.7835 23.083 31 24 17
3.28895 -2.06941 21.825 196 169 114
2.26568 -0.713232 18.2065 22 12 3
-0.515786 -1.18257 21.6209 113 84 47
2.42778 -1.21496 20.8609 206 180 131
1.34131 -1.38398 21.9833 205 176 120
0.606933 -0.26725 18.1451 121 101 71
-0.520849 -1.23053 21.7696 88 60 19
2.55781 -1.52744 21.9215 204 176 121
1.76956 -0.464202 18.0932 36 23 6
-0.76651 1.02314 22.0628 33 14 0
1.21434 -1.31153 22.0184 194 168 120
-1.90437 -1.06027 17.6119 255 230 169
2.00022 -0.55045 18.2568 57 36 8
-1.8657 -0.833404 16.6223 235 205 150
-0.021035 -1.0785 21.5591 30 15 0
2.83508 -0.733332 18.5224 44 23 2
0.180185 -1.1413 21.5688 67 35 1
2.25495 -0.905734 19.5586 232 202 151
3.03266 -1.53133 20.7427 146 125 89
3.02389 -1.19635 19.4445 154 135 100
1.90474 -1.05599 20.4072 227 196 140
1.79195 -0.34889 18.1487 44 30 14
-1.84303 -0.892702 16.9269 142 112 70
0.234538 -1.09537 21.4848 197 169 121
-0.601733 -1.06452 21.3892 62 33 2
-0.806568 -1.71524 21.1533 1 0 0
-0.68189 1.00794 22.1485 197 165 121
0.643047 -0.31841 18.2372 26 8 0
0.500556 -1.10481 21.5705 92 75 49
2.29293 -0.483281 17.8556 46 36 21
1.04111 -0.275219 17.8278 113 93 61
-0.678991 1.16993 22.0388 65 41 13
-0.126393 1.15955 22.505 54 31 5
0.380406 -0.206859 18.1217 49 32 11
2.62216 -0.819405 19.1046 170 139 94
0.290768 -1.06352 21.4483 81 49 3
1.41028 -0.796449 19.707 247 216 158
-0.261649 1.30555 22.6033 164 134 92
2.14637 -1.86669 22.1398 4 0 0
2.92849 -1.5466 21.2547 56 39 18
-0.481437 -1.10444 21.451 201 170 122
0.797572 -0.41757 18.3717 139 119 89
1.50913 -0.85016 19.8297 245 210 145
-1.47161 1.38972 19.3177 133 101 63
2.62376 -0.586384 18.071 95 72 36
-2.05161 -1.32224 18.5474 64 43 27
0.497738 -0.992041 21.4478 146 121 82
2.79728 -0.621043 18.1605 178 159 113
2.29862 -0.370461 18.0782 41 28 10
1.62004 -0.392714 17.9735 164 136 93
2.89008 -0.732445 18.3467 154 134 95
-0.811802 1.40858 21.9216 4 2 0
2.23579 0.430081 21.5939 140 112 72
-0.42324 0.189508 21.5957 73 45 9
2.8804 -1.41375 21.1479 138 114 83
2.33911 -0.907016 18.4009 201 180 130
2.83218 -0.880426 19.1533 44 21 2
-1.7548 -0.665687 16.4168 250 212 154
-0.159981 0.995517 22.5813 180 146 103
2.87787 -1.00301 19.442 128 107 80
2.70862 -0.660231 18.2205 192 163 115
-0.095248 0.998045 22.5728 188 152 105
1.44277 -1.02693 20.5966 218 188 129
3.15425 -2.24218 22.9317 23 12 0
-0.410071 0.0849009 21.4851 58 33 3
2.73906 -1.63627 22.0383 69 50 14
