ply
format ascii 1.0
element vertex 104
property float x
property float y
property float z
property uchar red
property uchar green
property uchar blue
end_header
1.04575 -0.5362 7.56844 154 140 94
0.19922 -0.235086 7.46298 247 204 132
-0.403122 0.45593 6.33206 50 40 34
-0.378536 0.408552 6.43675 250 212 158
0.753901 0.381194 7.2956 239 194 129
-0.317837 -0.731041 7.97494 13 8 3
-0.461022 0.489168 6.01932 45 34 28
-0.433444 0.456501 6.18559 253 218 165
-0.403186 0.455018 6.31486 53 39 36
0.634616 0.0985445 7.07842 130 95 61
0.148083 -0.306881 7.47397 124 88 57
0.547291 0.427055 7.23553 245 204 139
1.03458 0.406626 7.25498 18 6 2
0.729141 0.278204 7.1968 119 82 50
0.683863 0.278518 7.1856 125 86 57
0.429808 0.260904 7.12186 111 78 43
1.00485 0.415001 7.27036 207 175 139
1.05774 0.383254 7.26717 189 159 115
-0.379007 -0.0185129 6.65752 150 108 62
0.79709 0.117571 7.16474 114 79 30
0.0966113 -0.0572651 7.01982 120 84 37
-0.185675 -0.340155 7.38842 117 76 23
0.032226 0.0348508 6.93722 151 111 61
-0.246819 -0.0934135 6.90748 255 229 181
0.850499 0.396644 7.22469 130 106 80
0.879326 -0.0204765 6.94943 234 200 132
0.461291 0.263366 7.12341 255 254 190
0.817102 0.261456 7.19481 241 203 150
0.275059 -0.366199 7.55608 159 127 69
0.346413 -0.0291662 7.05851 177 137 85
0.793483 0.281551 7.21139 99 65 27
0.747957 0.413587 7.23001 20 12 10
0.979052 0.378948 7.24674 120 84 35
0.773407 0.298495 7.20509 233 189 136
0.745821 0.299258 7.19615 243 202 138
1.08209 0.277664 7.09581 159 133 96
0.64888 0.271772 7.15946 243 202 155
0.977613 0.128258 6.97646 139 111 78
0.818223 0.378542 7.24345 200 159 111
1.24494 0.244313 7.1745 167 142 118
-0.316513 -0.0619196 6.78232 255 248 169
0.89093 -0.296567 7.45087 158 135 98
-0.171256 0.0697825 6.8366 21 9 2
1.02834 0.143045 6.90665 233 210 163
0.350854 -0.260003 7.49433 138 98 43
0.392715 -0.256858 7.49515 132 95 43
-0.285689 -0.372316 7.41131 216 177 111
0.331571 -0.00612886 7.045 255 239 171
0.620562 -0.155235 7.27066 221 186 132
0.581903 -0.028368 7.06354 191 146 80
0.686825 -0.132216 7.25808 143 108 56
0.0832654 -0.0163468 6.97082 184 139 79
0.899709 -0.0512632 6.96421 108 80 32
0.353579 -0.071796 7.11507 140 108 55
0.840146 -0.0524597 7.07464 171 146 105
0.908727 -0.155907 7.13176 166 142 103
0.334053 -0.0558846 7.08391 255 237 170
0.609989 -0.0718461 7.07359 128 99 51
0.981273 -0.00692281 6.87342 240 210 147
0.0381032 -0.37373 7.52381 216 180 117
0.905476 -0.0311853 6.92231 225 190 129
0.852206 -0.579341 7.87972 140 116 65
0.331132 -0.387944 7.5989 167 132 78
0.340915 0.010672 7.04422 166 128 70
0.467633 -0.297946 7.45434 124 90 47
0.885851 0.369129 7.32938 91 65 35
0.587435 0.0278114 7.06055 249 211 149
0.789923 0.0671729 7.11108 138 107 57
0.182759 -0.307209 7.47795 254 224 162
-0.373697 -0.0533979 6.71658 255 240 173
0.890345 -0.096211 7.03807 176 150 111
0.390797 -0.326818 7.52881 141 107 52
0.286269 -0.330648 7.51612 157 119 59
0.313456 -0.307778 7.50542 246 206 133
1.26019 0.0899788 7.21922 166 135 92
0.480436 0.218201 7.16921 241 202 149
0.262473 -0.348784 7.53424 255 235 172
0.8784 0.0408318 6.96424 211 183 133
0.945655 -0.035901 6.89666 140 113 72
1.23202 -0.00913284 7.26874 165 128 75
0.425733 0.285259 7.11594 255 225 165
0.599761 0.286632 7.1755 148 110 62
0.876897 -0.43444 7.65708 156 129 84
0.990672 0.0767477 6.87949 235 210 157
0.86157 -0.454761 7.70076 82 57 18
0.330062 0.0252415 7.03946 255 218 158
0.795394 0.309658 7.21354 137 98 49
0.876786 0.374829 7.25836 85 61 32
1.07743 0.406608 7.26052 7 0 0
0.952968 0.418379 7.26321 188 153 101
0.602913 0.339866 7.18056 142 102 54
0.914023 0.435386 7.23532 10 1 0
0.946482 -0.57702 7.80694 117 104 74
0.975114 0.446957 7.26404 15 4 7
0.914271 -0.589815 7.84936 116 101 75
-0.691048 -0.269206 6.4409 213 182 126
1.14936 -0.404726 7.5969 147 128 92
-0.143174 -0.0602576 6.90955 182 144 100
0.854503 0.252374 7.16513 193 159 115
0.790316 -0.539005 7.79688 155 133 83
1.03591 0.364542 7.25739 129 94 44
0.816091 0.150371 7.13989 221 184 132
0.978838 0.0789156 8.58302 207 177 121
0.808806 0.0650758 7.09455 207 177 121
