ply
format ascii 1.0
element vertex 53
property float x
property float y
property float z
property uchar red
property uchar green
property uchar blue
end_header
0.551946 -0.45707 8.94026 209 185 131
-0.252524 -0.504318 9.0757 84 52 10
0.981325 -0.308563 8.70801 224 194 140
0.808166 -0.0739004 8.471 29 16 1
-0.19711 -0.451912 9.04773 179 154 113
0.00469856 -0.442911 9.04843 211 172 115
0.221925 -0.439026 9.0459 199 173 123
-0.692773 -0.271681 8.44712 152 119 69
-0.648323 -0.166191 8.4175 143 99 47
-0.577532 -0.726492 9.17731 44 31 21
0.986539 -0.513695 9.00984 36 17 0
-0.514924 -0.483199 9.02774 67 42 17
0.205236 -0.37824 9.0695 32 18 2
0.305387 -0.065891 8.53123 205 174 130
0.681037 -0.152392 8.55978 68 40 3
0.254847 -0.528284 9.1333 255 252 196
0.782009 -0.120764 8.50558 46 26 3
0.666355 -0.640467 9.15671 11 5 1
-0.814557 -0.626052 8.8246 147 107 54
-0.55274 -0.683401 9.22333 243 220 163
0.797591 -0.491183 8.97004 32 17 3
0.360574 -0.440552 9.04374 176 149 99
-0.182015 -0.433317 9.04151 47 18 0
-0.286602 -0.435582 9.03508 69 39 2
-0.0834513 -0.446836 9.04664 216 192 148
1.28611 -0.213315 8.54313 40 21 0
-0.76953 -0.302328 8.44777 161 122 67
0.351491 -0.0657597 8.53421 152 125 93
0.800067 -0.52615 9.01306 148 132 99
0.0994317 -0.465124 9.06101 73 44 10
1.00406 -0.677798 9.10912 9 5 5
0.874005 -0.279893 8.75113 232 197 138
0.181576 -0.405261 9.07215 127 103 73
1.42415 -0.520581 8.57737 35 19 0
1.26556 -0.350399 8.67882 135 114 88
0.837476 -0.272817 8.72479 236 199 136
-0.169966 -0.374652 9.06142 52 25 1
0.673331 -0.013031 8.39652 236 205 154
1.11437 -0.510988 8.77594 209 184 131
0.0932078 -0.430435 9.05188 70 40 1
1.2081 -0.1302 8.46142 91 66 33
0.957501 -0.183717 8.52523 220 185 132
0.75927 -0.377584 8.85001 147 114 59
1.17666 -0.165041 8.49979 207 175 121
1.20782 -0.517157 8.88295 132 109 81
1.05626 -0.274042 8.47694 195 167 117
-0.0450509 -0.320921 9.10273 143 127 101
1.24066 -0.913817 9.17002 14 4 0
1.01891 -0.0078512 8.57156 73 52 25
-0.654344 -0.0292836 8.1845 216 184 136
1.28794 -0.149211 8.47774 176 152 105
0.539166 0.256483 9.79047 51 26 1
1.24173 -0.419863 8.7633 118 98 75
