ply
format ascii 1.0
element vertex 80
property float x
property float y
property float z
property uchar red
property uchar green
property uchar blue
end_header
0.178365 -0.130253 4.56248 245 212 151
-0.198621 -0.111882 4.63312 91 59 8
0.379019 0.072279 4.5521 132 95 44
0.457417 0.202878 4.57054 239 197 133
0.561351 0.146625 4.47239 199 166 115
0.636445 0.215389 4.54698 187 158 119
0.413418 0.095555 4.55271 150 110 77
0.00665619 0.0883525 4.68691 255 251 170
0.385107 -0.0852956 4.5245 58 30 5
0.6275 -0.191489 4.32626 229 207 149
0.671489 0.184415 4.53231 183 156 108
0.421995 0.168049 4.55761 239 195 125
0.491044 0.100676 4.54325 97 63 23
0.446866 0.0978723 4.55354 119 78 48
0.507861 0.0785338 4.53835 230 194 138
0.0267646 0.0739988 4.6784 21 10 0
0.508181 0.0501049 4.53322 213 176 118
0.684021 0.0339328 4.42075 161 135 98
0.67242 0.00244274 4.41918 161 137 104
0.508172 -0.05455 4.51325 206 173 121
0.635067 -0.0861426 4.40809 163 137 100
0.620831 -0.11424 4.40178 168 144 108
0.477622 -0.118841 4.50062 207 177 116
-0.0329761 -0.128646 4.59129 115 75 38
-0.224716 -0.127601 4.62033 255 228 168
0.436787 0.193617 4.56915 231 198 140
0.124302 0.161996 4.62994 255 229 167
-0.36217 0.16752 4.70843 80 49 18
-0.00535279 0.155492 4.65298 255 228 159
-0.0427691 0.144279 4.65635 166 119 57
0.491486 0.122778 4.54527 119 82 32
0.174036 0.0967868 4.65755 255 226 155
0.495951 -0.043492 4.52652 88 54 9
0.507878 -0.0539489 4.51099 206 173 121
0.505704 -0.108048 4.4941 188 159 105
-0.155122 -0.120725 4.61288 210 176 119
-0.197135 -0.129562 4.61403 253 214 154
0.186437 -0.141534 4.5634 160 124 63
-0.259537 -0.149519 4.6246 118 80 33
-0.0254362 -0.113394 4.59808 227 198 142
0.380631 -0.101394 4.51446 193 167 127
0.163769 0.166094 4.62076 235 199 153
-0.384104 0.107107 4.66375 152 110 61
0.532828 0.0571525 4.51069 174 141 100
0.61189 -0.0645522 4.46076 135 108 78
0.543154 0.0625745 4.4871 78 51 13
0.620915 -0.0475056 4.47063 134 109 79
0.419199 -0.0954556 4.52958 190 155 95
0.356405 -0.138887 4.51375 237 202 139
0.660239 0.064226 4.50422 60 31 5
0.128322 -0.134059 4.56949 254 216 152
0.641872 0.00130733 4.47057 123 102 77
-0.368699 -0.154152 4.63048 178 136 81
0.675711 0.0817411 4.48125 119 95 73
0.334773 0.147436 4.59092 164 122 70
0.00406937 -0.142508 4.58556 178 136 68
0.363761 0.166185 4.57557 208 173 127
0.467601 0.101935 4.55306 132 95 47
0.575027 -0.176924 4.40377 81 56 15
-0.0165236 0.140229 4.6534 194 149 91
0.492511 0.0831213 4.54044 114 81 34
0.174761 0.205342 4.66013 33 17 1
0.540999 -0.0286006 4.44393 90 65 32
0.686514 0.127367 4.50942 60 33 4
0.508492 -0.0278991 4.51862 212 178 122
0.601336 -0.190855 4.36323 184 159 119
0.618991 0.143369 4.52617 109 72 25
0.616767 -0.0873551 4.43883 44 27 6
0.586944 -0.100566 4.47357 84 53 11
0.567994 -0.208341 4.38924 195 164 112
0.47732 0.0578681 4.54634 205 168 111
0.47626 0.113958 4.54991 236 193 135
0.506251 0.111473 4.53734 223 182 124
0.356154 -0.0150049 4.55044 144 109 53
0.389468 0.0463218 4.53765 233 195 133
0.6761 0.0959231 4.51072 65 37 7
0.42933 0.0660165 4.54726 218 174 107
0.609005 -0.172514 4.36975 127 108 82
0.37575 -0.00956715 4.54641 166 129 72
0.462802 -0.0927608 4.52295 185 148 91
