ply
format ascii 1.0
element vertex 132
property float x
property float y
property float z
property uchar red
property uchar green
property uchar blue
end_header
-0.228672 0.244453 7.11081 194 162 116
-0.199396 -0.395526 6.68786 234 208 159
-0.184907 -0.385559 6.68177 82 53 12
-0.0910481 0.326574 7.15207 165 137 98
0.841658 -0.593067 6.53804 207 182 131
0.00438134 -0.339997 6.63798 201 165 109
0.928533 -0.453931 6.40464 153 132 93
0.719329 -0.456417 6.56245 208 184 125
1.0439 -0.420785 6.23813 36 20 1
0.729576 -0.529776 6.56076 6 2 0
0.779269 0.153487 6.8805 171 143 104
-0.536083 -0.270029 6.48075 156 124 73
0.641841 -0.187606 6.29683 227 193 129
0.424438 -0.069325 6.23533 254 226 176
0.740378 -0.359468 6.45463 197 169 119
-0.463479 -0.216513 6.49416 151 115 68
0.970242 -0.349076 6.28709 154 135 99
-0.486703 -0.118912 6.35681 250 220 167
0.600152 -0.107988 6.24953 31 16 1
0.763598 -0.190306 6.22076 20 12 4
0.674264 -0.137522 6.2506 56 33 8
0.260879 -0.100044 6.33215 153 126 97
1.11859 -0.253216 6.33486 161 133 84
0.589679 -0.313798 6.45163 232 201 143
1.06581 -0.342482 6.23914 160 135 82
-0.72181 -0.351344 6.3779 255 233 168
-0.345617 -0.464772 6.74261 11 6 3
-0.445921 -0.151238 6.48019 98 61 20
0.892902 -0.146929 6.20546 92 69 33
0.486638 -0.466244 6.61995 11 8 2
-0.417412 -0.155459 6.48574 119 78 39
-0.71824 -0.624282 6.67323 57 40 25
0.134393 -0.307935 6.62835 130 105 68
-0.125944 -0.289859 6.67861 54 27 1
0.720813 -0.259732 6.34741 224 196 145
0.562879 -0.231153 6.35986 247 215 160
0.799682 -0.152885 6.19421 192 155 107
0.697876 -0.250277 6.38254 45 23 3
0.0702284 -0.394748 6.66157 218 183 124
0.56332 -0.230993 6.35901 247 215 160
0.681636 -0.230703 6.36959 212 180 131
0.837541 -0.570874 6.51719 190 165 109
-0.557248 -0.665395 6.81725 249 220 157
0.927452 -0.289751 6.31316 134 114 87
0.49638 0.247687 6.96239 167 139 100
-0.0358761 0.19451 7.1245 174 136 80
-0.610695 -0.506278 6.63498 158 119 60
0.709991 0.175392 6.89729 15 9 3
-0.174521 -0.348991 6.66763 201 171 119
0.033916 -0.352922 6.63417 67 35 0
-0.44989 -0.120184 6.46132 55 28 9
1.08127 -0.118909 6.41853 161 143 109
-0.451835 -0.0658711 6.45364 38 21 13
0.736952 -0.418075 6.51626 81 52 13
0.356155 -0.0891499 6.26107 24 12 0
0.045344 -0.394398 6.64895 111 78 30
-0.383531 -0.403161 6.71775 235 199 140
-0.153705 -0.41752 6.7196 226 192 133
0.786191 -0.110092 6.19698 39 27 16
0.547542 -0.392567 6.54463 83 58 21
0.529651 -0.101647 6.2329 33 14 0
-0.178544 -0.364161 6.67279 81 47 2
-0.195735 -0.350906 6.67209 215 183 126
-0.386531 -0.314784 6.71363 64 34 3
1.01315 -0.293511 6.22688 174 150 100
-0.21194 -0.338683 6.67516 59 29 0
-0.133832 -0.33529 6.66159 54 24 0
-0.0274777 -0.337646 6.65812 32 14 0
0.133857 -0.340305 6.62439 75 60 39
-0.720529 -0.297884 6.3468 128 96 55
1.03329 -0.446714 6.26452 42 28 1
0.751828 -0.454832 6.54337 201 171 116
0.78968 -0.502252 6.55109 174 155 114
0.829194 -0.452525 6.44877 192 169 123
-0.677685 -0.504734 6.56073 116 81 34
-0.424189 -0.546345 6.79004 32 22 12
-0.475719 -0.592657 6.81486 240 213 154
0.210083 -0.0672323 6.33836 23 8 0
-0.567631 -0.613523 6.74925 143 109 50
0.403583 -0.0589276 6.24501 32 19 1
1.04734 0.0196579 6.74822 168 146 109
0.642134 -0.236266 6.38518 224 191 134
0.973773 0.0417387 6.7267 160 137 105
0.932913 0.052014 6.71 178 154 117
0.871446 0.126963 6.80304 16 8 1
0.882973 0.0972406 6.7836 154 134 102
0.847422 0.138552 6.84288 167 144 114
-0.387367 0.18111 6.85992 207 173 128
0.392156 -0.0815539 6.25704 253 222 164
0.579508 -0.1404 6.26616 45 26 2
-0.0912459 0.326168 7.15643 165 137 98
0.948648 -0.200788 6.24835 41 23 1
0.0196751 -0.131981 6.3968 196 169 126
-0.701887 -0.216621 6.32351 250 211 149
0.830392 -0.498606 6.45338 182 158 106
0.924414 -0.252389 6.30652 42 20 3
0.571811 -0.273575 6.39226 243 212 155
0.337956 -0.424168 6.62523 24 8 0
0.501449 -0.0694974 6.22084 235 206 161
-0.737664 -0.277825 6.3257 241 211 154
-0.184805 -0.373282 6.68112 113 85 46
0.814954 -0.399982 6.36706 207 182 133
-0.383559 -0.377139 6.71281 69 43 15
0.718693 -0.383129 6.51493 34 18 2
0.347292 -0.397008 6.61631 197 168 119
0.177571 0.233518 7.05978 181 149 105
0.119428 -0.0312763 6.35653 54 37 13
-0.224099 -0.294514 6.68737 57 32 1
1.02874 -0.400106 6.23242 137 120 82
0.780914 -0.25389 6.21842 200 173 124
-0.131738 0.0332786 6.92961 135 116 81
0.870391 -0.170114 6.23825 206 175 122
-0.0114131 -0.0378748 6.38675 125 107 79
0.856818 -0.408007 6.47324 64 38 7
0.440092 -0.309381 6.49942 204 176 121
0.737785 -0.321193 6.42754 216 184 134
1.01805 0.0518185 6.74215 5 1 0
-0.0683711 -0.383381 6.66093 167 141 89
0.880244 -0.394008 6.42763 134 112 81
0.870631 -0.420355 6.46359 141 116 86
-0.67716 0.188586 6.55187 24 11 6
0.153412 0.160504 7.15667 10 2 0
-0.434604 -0.168382 6.49615 237 198 149
0.89425 -0.650765 6.56238 21 9 0
0.752947 -0.048426 6.2922 62 43 20
-0.369268 0.106934 6.91427 174 146 110
0.799222 -0.480275 6.51738 69 49 15
0.533322 0.25502 6.98861 73 47 21
0.662338 -0.109012 6.2464 58 41 19
-0.569273 -0.159329 6.35795 255 221 169
0.8801 -0.456727 6.45155 55 40 20
0.353976 -0.0441862 6.26932 116 97 65
