ply
format ascii 1.0
element vertex 72
property float x
property float y
property float z
property uchar red
property uchar green
property uchar blue
end_header
1.20291 0.439056 12.6439 222 191 142
1.11814 -0.289912 12.1233 179 144 84
1.5229 -0.44928 11.5724 66 45 18
1.59535 -0.554888 11.0659 227 206 149
1.50777 -0.629972 11.1965 232 207 144
1.44257 -0.65541 11.4525 216 190 129
1.60377 -0.335317 11.3894 147 124 94
0.784837 0.0918353 12.7794 242 199 139
1.16112 0.366592 12.5703 236 194 126
1.88269 0.350349 12.1202 38 21 4
1.36639 0.22176 12.3165 220 179 122
1.36639 0.22176 12.3165 220 179 122
1.32918 0.193848 12.3515 103 71 31
1.21847 0.184847 12.4413 119 79 43
1.07488 0.143985 12.4605 235 197 137
1.29291 0.0828193 12.3419 194 156 106
1.15104 0.00411747 12.3234 235 200 137
1.77688 0.0101529 11.6227 162 136 98
1.77688 0.0101529 11.6227 162 136 98
1.74476 -0.068456 11.5919 160 137 100
1.42569 -0.153754 11.7591 88 62 29
1.80559 0.488988 12.3941 6 1 0
1.80559 0.488988 12.3941 6 1 0
-0.177179 -0.420084 12.9684 209 177 122
1.6032 -0.359272 11.4412 164 141 104
-0.0328953 -0.444407 12.795 104 70 27
-0.563952 -0.476996 13.3006 255 224 162
0.968667 -0.4269 12.0434 235 197 139
0.0459131 -0.456666 12.7629 255 218 152
-0.176026 -0.501461 12.8533 255 231 159
1.48593 -0.511671 11.4088 76 53 13
-0.492989 -0.428308 13.3459 82 49 1
1.03138 -0.332946 12.0782 194 168 128
-1.40362 -0.826747 13.3694 162 121 67
-1.40362 -0.826747 13.3694 162 121 67
0.0583502 0.151032 13.6711 255 246 170
0.442748 0.471532 13.5286 27 13 0
-0.0102183 0.278346 13.6844 168 126 74
1.33279 0.251089 12.3909 119 84 34
0.993023 0.0308782 12.5062 134 100 52
1.33279 0.251089 12.3909 119 84 34
0.751171 0.134181 12.7841 255 239 175
1.22054 0.0701224 12.3829 229 191 127
0.959871 -0.35912 12.1475 92 62 15
0.69912 0.468831 13.0071 246 210 150
1.78066 0.1432 11.9557 116 97 73
1.17171 0.0988669 12.3942 229 187 119
0.733628 0.533596 13.1195 22 9 2
1.04508 0.179423 12.5269 128 89 39
1.27225 0.197192 12.4225 133 96 48
0.521418 -0.420635 12.419 243 212 150
0.509621 -0.402373 12.4437 127 87 39
1.32928 0.149137 12.304 118 84 39
1.74361 0.106188 12.0205 54 27 5
1.42414 0.0777851 12.1243 167 136 96
1.65422 0.309711 12.2283 101 65 18
1.65422 0.309711 12.2283 101 65 18
1.32713 -0.173793 12.1164 83 50 8
0.523574 0.421553 13.298 160 126 85
0.0429188 -0.410308 12.7869 246 210 150
1.07895 0.531959 12.7858 46 25 3
0.512512 -0.356573 12.5005 186 158 106
-1.40464 -0.827991 13.3768 162 121 67
-1.40464 -0.827991 13.3768 162 121 67
1.34203 -0.340037 11.9175 179 152 99
1.46503 -0.590214 11.3359 192 162 109
1.54023 -0.54963 11.2263 178 155 116
-0.0133684 -0.404182 12.8508 227 195 137
1.60422 -0.287197 11.6202 43 28 7
-0.982484 -0.583713 13.6768 168 127 70
1.03549 0.0493636 12.5383 129 97 46
0.971746 0.340039 12.8235 217 178 123
