ply
format ascii 1.0
element vertex 145
property float x
property float y
property float z
property uchar red
property uchar green
property uchar blue
end_header
0.312522 -0.0277957 8.42606 9 0 0
0.819012 0.26675 8.26257 235 191 121
0.321623 -0.239854 8.25933 245 212 151
-0.331558 -0.215522 8.38317 91 59 8
0.303915 0.0928043 8.47145 14 3 0
0.128218 -0.171309 8.34502 207 179 138
-1.06384 0.0534949 8.16493 54 36 28
0.647843 0.0497469 8.27416 232 196 140
0.986834 -0.221049 8.01237 183 151 96
0.668211 0.11335 8.26255 132 95 44
-0.878418 0.408278 8.36494 232 197 150
0.803243 0.339834 8.30858 239 197 133
0.724694 0.323023 8.21106 38 21 3
1.23387 0.308456 8.22941 175 148 105
0.982218 0.2479 8.12275 199 166 115
1.21672 0.0214298 7.98013 23 12 0
1.04396 -0.216071 8.03797 50 30 12
0.506251 0.383948 8.39337 248 208 146
1.11308 0.364216 8.25983 187 158 119
0.88721 0.305392 8.25943 193 154 110
0.727888 0.154076 8.26793 150 110 77
0.0217235 0.130874 8.51654 255 251 170
1.02448 -0.266427 8.02121 68 48 19
0.303669 0.361532 8.50118 93 71 51
1.17258 0.311505 8.2288 183 156 108
0.741654 0.279632 8.28081 239 195 125
0.862398 0.164298 8.25379 97 63 23
0.785421 0.158373 8.26855 119 78 48
0.891412 0.126248 8.23975 230 194 138
0.0581898 0.106416 8.49022 21 10 0
1.30755 0.0860847 7.90954 61 45 19
0.892609 0.0772702 8.23144 213 176 118
1.17488 0.00207628 8.01104 161 137 104
0.893928 -0.103125 8.19343 206 173 121
1.1093 -0.150716 7.97739 163 137 100
1.08633 -0.199193 7.97141 168 144 108
0.83986 -0.213863 8.15154 207 177 116
-0.0445246 -0.240687 8.30711 115 75 38
-0.376304 -0.242316 8.35689 255 228 168
-0.0462883 -0.269901 8.30388 255 249 175
-0.572801 -0.344958 8.39405 140 97 40
0.76717 0.323614 8.30505 231 198 140
1.07556 0.300064 8.23066 92 59 13
0.274386 0.308234 8.42485 217 179 132
0.225196 0.262383 8.40637 255 229 167
-0.619146 0.26291 8.53513 80 49 18
0.631283 0.250626 8.30955 113 78 39
-0.000125463 0.248634 8.44333 255 228 159
-0.298614 0.244314 8.48847 255 242 168
-0.0649992 0.22854 8.44649 166 119 57
-0.566058 0.217321 8.51352 169 123 60
-0.565694 0.217347 8.51384 169 123 60
0.862741 0.202471 8.2571 119 82 32
0.313107 0.148433 8.45151 255 226 155
0.869961 0.09853 8.23867 104 70 29
0.850195 -0.0663731 8.20321 246 211 145
0.871923 -0.0847009 8.21262 88 54 9
0.892826 -0.101909 8.18451 206 173 121
-0.0835115 -0.180656 8.36913 226 190 134
-0.174329 -0.186185 8.37474 228 200 150
-0.238438 -0.189582 8.38549 214 181 131
0.887905 -0.194506 8.13924 188 159 105
0.314717 -0.197518 8.28412 212 180 121
-0.349427 -0.19776 8.39374 223 188 124
-0.255395 -0.229369 8.34497 210 176 119
0.180983 -0.232714 8.27761 179 137 70
0.335876 -0.259304 8.25947 160 124 63
-0.436597 -0.280749 8.36251 118 80 33
1.07513 -0.317044 7.86964 85 67 31
-0.0317987 -0.214493 8.31846 227 198 142
0.0271335 -0.192297 8.34483 59 35 2
0.966284 0.339514 8.24362 204 179 138
0.67142 -0.185382 8.17679 193 167 127
0.693151 -0.185135 8.16975 207 176 131
0.647677 0.291277 8.32571 102 67 20
0.293435 0.270351 8.38921 235 199 153
-0.586658 0.203206 8.51939 254 220 163
0.631314 0.173088 8.30187 148 108 60
0.667181 0.157821 8.26986 141 101 52
-0.655764 0.160038 8.44214 152 110 61
0.934535 0.090819 8.1883 174 141 100
0.690896 -0.120777 8.19549 115 78 27
1.07216 -0.116551 8.08581 135 108 78
1.06521 -0.367845 7.85056 130 107 57
0.870616 -0.110262 8.20395 110 76 27
0.632502 -0.216304 8.18734 203 175 123
0.660857 0.0678855 8.28759 140 103 50
0.953554 0.101706 8.16215 78 51 13
0.621245 -0.204238 8.20078 113 82 36
1.08743 -0.0874315 8.10449 134 109 79
0.647608 -0.0552162 8.25065 242 204 144
0.738682 -0.175491 8.20455 190 155 95
0.932299 -0.0589004 8.13921 171 142 101
0.00578706 -0.252365 8.30966 255 216 155
0.629974 -0.250468 8.17451 237 202 139
-0.566064 -0.311128 8.36828 255 242 160
1.15617 0.104838 8.18246 60 31 5
0.235088 -0.247361 8.27127 254 216 152
1.12283 -0.00280498 8.10397 123 102 77
0.104193 -0.238629 8.28742 185 146 80
1.02763 -0.307161 7.93886 167 142 103
1.15658 0.0796916 8.11201 136 112 81
1.04642 -0.144381 8.12158 80 50 10
0.887611 -0.145267 8.15132 186 153 101
-0.625044 -0.290054 8.36867 178 136 81
0.0199682 -0.263804 8.28826 178 136 68
0.640684 0.274835 8.31149 208 173 127
0.821033 0.16569 8.2672 132 95 47
1.04993 -0.164744 8.0815 143 116 82
0.944663 0.237 8.16452 92 64 33
1.00786 -0.308162 7.97393 81 56 15
-0.0199432 0.221884 8.43858 194 149 91
0.86573 0.134102 8.25334 114 81 34
0.313016 0.336802 8.46699 33 17 1
0.946313 -0.054132 8.04157 90 65 32
0.945585 -0.108986 8.03873 94 72 35
1.20133 0.214307 8.196 60 33 4
0.893557 -0.057165 8.1987 212 178 122
1.05211 -0.329526 7.89221 184 159 119
1.08426 0.240526 8.22734 109 72 25
1.07597 0.270254 8.21626 123 90 40
1.08013 -0.154781 8.04588 44 27 6
1.06112 0.316678 8.24291 212 172 121
0.995073 -0.361449 7.93928 195 164 112
0.652362 0.353044 8.32406 142 103 48
0.670039 0.36569 8.30782 216 179 121
0.838132 0.0896977 8.24947 205 168 111
0.810412 0.374319 8.3284 12 3 1
0.327451 -0.281347 8.2709 254 229 162
0.889022 0.183529 8.24719 223 182 124
-0.291959 0.194918 8.47625 255 247 171
0.832199 0.283081 8.28178 240 195 126
0.628878 -0.0380249 8.24985 144 109 53
0.934314 -0.0247342 8.15192 172 141 104
0.686773 0.069244 8.23993 233 195 133
0.934666 0.00193793 8.16175 178 146 107
1.03947 -0.187022 8.07552 126 102 72
1.18413 0.159743 8.20146 65 37 7
1.19585 0.288309 8.22455 112 81 38
0.754404 0.103248 8.24806 218 174 107
0.662498 -0.0281811 8.2409 166 129 72
0.610403 0.256972 8.33725 227 181 128
0.813878 -0.169986 8.1907 185 148 91
-0.588941 -0.287052 8.36721 200 155 92
1.10509 -0.0115583 8.13039 66 37 1
