ply
format ascii 1.0
element vertex 127
property float x
property float y
property float z
property uchar red
property uchar green
property uchar blue
end_header
0.841392 -0.0567251 9.09435 118 83 39
0.100271 -0.666359 9.81541 225 189 119
1.16863 -0.0180577 8.36619 175 150 113
-0.292644 -0.404173 9.24048 176 130 61
1.09664 0.0231645 8.56866 192 155 97
-0.195153 -0.709094 10.0047 234 196 124
0.523133 0.439354 8.74319 249 212 154
1.52537 0.119016 8.68329 156 128 89
0.530003 0.0215142 8.63925 248 214 146
1.13881 -0.335197 8.32088 213 182 117
0.428257 -0.725745 9.97899 205 172 99
0.383975 -0.103113 8.62867 248 213 150
-0.661049 0.508286 8.36064 250 214 158
0.447175 0.23302 8.86459 254 207 146
-0.0293862 -0.0532919 8.67804 224 192 148
0.744648 -0.042882 8.58686 213 184 138
0.770046 -0.0428562 8.58934 207 177 128
1.07576 0.134744 8.49059 209 177 123
1.25815 0.0137192 8.27676 211 185 127
1.17452 -0.0651475 8.30063 34 22 3
1.44386 -0.175872 8.82586 167 135 82
-0.747558 0.547734 8.07643 231 203 164
1.09289 0.48722 8.73591 9 2 0
-0.851872 0.479603 7.81476 251 207 144
1.20682 0.471003 8.7572 202 171 132
0.822134 0.430839 8.81259 35 20 2
1.32865 0.419724 8.72756 175 147 103
0.975155 0.418466 8.73481 192 157 106
1.39903 0.300076 8.40288 143 125 91
0.950497 0.279468 8.73917 94 60 23
0.870626 0.273337 8.73896 122 81 52
0.813133 0.271733 8.72666 124 87 57
-0.57183 0.287883 8.50649 194 148 96
0.502166 0.246602 8.74067 119 84 50
1.03538 0.102504 8.52289 91 66 33
-0.485569 0.324048 8.59917 195 147 88
1.07524 0.0676187 8.85515 96 70 38
1.12803 -0.057087 8.47901 58 38 10
1.48107 -0.0958796 8.73034 166 129 74
1.0162 -0.110627 8.41522 96 74 39
1.17924 -0.114965 8.21199 235 210 154
0.36984 0.371656 8.80201 251 216 168
0.733114 0.516062 8.84461 228 190 143
1.27035 0.423332 8.73825 186 157 118
0.977372 0.301283 8.72077 222 183 125
0.770585 0.256047 8.70561 236 197 141
0.978018 0.245797 8.70438 236 200 144
0.541892 0.248316 8.72942 255 251 186
1.04455 0.235765 8.63626 86 57 22
1.29093 0.218431 8.48211 164 136 100
0.74733 0.218182 8.73425 143 104 51
0.979029 0.197908 8.69283 217 181 126
1.26865 0.162564 8.48148 164 140 104
0.975326 0.0769147 8.62467 217 181 126
0.521659 0.0635357 8.63848 20 10 2
1.19681 0.0229447 8.40774 166 138 100
1.16463 0.00613942 8.46908 50 30 2
1.17158 -0.0207173 8.38725 175 150 113
0.341692 -0.422662 9.29199 158 118 56
1.07386 -0.407362 9.04098 160 135 98
-0.146422 -0.405756 9.25692 113 71 9
-0.201772 -0.139915 8.58982 255 255 191
-0.520738 -0.194113 8.54738 147 103 54
1.04885 -0.216778 8.33047 242 212 148
1.0886 -0.303414 8.38411 63 42 9
1.17416 0.413486 8.74261 109 75 27
0.824169 0.394035 8.74539 238 194 132
0.715232 0.36146 8.76387 132 98 52
1.11122 -0.142515 8.30764 97 70 27
1.13551 -0.134075 8.29527 195 169 126
0.397983 -0.122983 8.63123 171 132 75
0.950904 0.317457 8.73509 131 92 44
1.15628 -0.11648 8.26526 84 65 26
-0.536918 0.322646 8.60166 142 100 62
-0.320103 -0.0965387 8.59048 255 232 175
0.699864 -0.105526 8.57138 244 207 145
0.923943 0.301625 8.73675 236 194 136
0.891305 0.301202 8.74132 245 203 139
1.40129 0.269293 8.36584 86 65 36
1.02282 0.220529 8.65549 189 156 115
0.954766 0.218128 8.70569 114 78 33
0.72378 0.0696571 8.67569 242 202 140
-0.294436 -0.0632227 8.63272 225 195 155
-0.270273 -0.0634347 8.6582 220 194 158
0.953537 0.0419436 8.65402 94 61 13
-0.119185 -0.0571869 8.67523 206 186 156
0.725055 -0.0556364 8.55506 124 93 46
0.967557 -0.0509577 8.56399 204 174 118
0.0125749 -0.0994811 8.6216 127 91 46
-0.275633 -0.100134 8.5868 255 219 153
-0.146472 -0.107502 8.59712 147 108 67
0.387496 -0.14515 8.63053 255 239 170
0.0798563 -0.164183 8.63795 185 140 78
1.08014 -0.193249 8.30291 102 74 25
-0.665206 0.228596 8.32538 187 145 93
-0.698111 0.525824 8.313 239 192 139
0.741484 0.489153 8.79827 122 91 57
1.05946 0.45358 8.74361 191 165 122
1.15636 0.427577 8.75085 227 185 131
0.854737 0.429376 8.78759 227 195 143
0.38327 0.436752 8.93556 162 145 121
1.36675 0.398474 8.73014 132 108 83
0.350756 0.401197 8.84332 224 184 143
-0.227688 0.343868 8.73793 255 243 172
0.370407 0.327673 8.79192 194 144 86
0.00537706 0.329308 8.77746 188 141 79
0.0492892 0.322349 8.78813 203 157 90
-0.660274 0.306204 8.34461 189 149 101
0.90607 0.28049 8.73256 136 95 55
0.711968 0.286467 8.74885 143 104 58
1.17193 0.513526 8.76019 7 0 0
1.01544 0.0842034 8.57008 176 147 104
1.24752 0.22915 8.65165 72 42 10
0.299862 -0.129658 8.6344 194 147 85
0.393687 -0.0805554 8.62901 156 119 66
1.1752 0.463289 8.74305 114 82 36
0.740745 0.186158 8.7153 154 120 63
0.824094 0.164894 8.6832 239 203 136
1.01808 0.437581 8.73949 123 100 75
0.295542 -0.109859 8.63048 255 226 157
0.497376 0.278265 8.73009 255 215 155
1.0144 0.0493274 8.56514 176 148 106
-0.530475 0.300985 8.61296 255 212 148
0.932955 0.0261057 8.65946 201 165 119
-0.509426 -0.23042 8.59397 255 237 167
0.726061 -0.00508965 8.6527 205 171 122
-0.156924 -0.129003 8.58476 255 235 176
