ply
format ascii 1.0
element vertex 127
property float x
property float y
property float z
property uchar red
property uchar green
property uchar blue
end_header
0.832778 -0.0489284 8.87293 118 83 39
0.10576 -0.632315 9.49502 225 189 119
1.15802 -0.0150962 8.20085 175 150 113
-0.279982 -0.392854 9.09872 176 130 61
1.0867 0.0261517 8.39325 192 155 97
-0.181083 -0.67481 9.69692 234 196 124
0.533736 0.436088 8.71243 249 212 154
1.50376 0.120025 8.4808 156 128 89
0.533622 0.0234476 8.51739 248 214 146
1.12042 -0.321437 8.10371 213 182 117
0.42093 -0.682991 9.58897 205 172 99
0.388688 -0.0989418 8.50212 248 213 150
-0.693973 0.511175 8.87661 250 214 158
0.454476 0.231861 8.7782 254 207 146
-0.0198086 -0.0539011 8.64027 224 192 148
0.742883 -0.0390398 8.43487 213 184 138
0.767283 -0.0386646 8.43053 207 177 128
1.07024 0.134507 8.34605 209 177 123
1.24611 0.0157692 8.11348 211 185 127
1.16246 -0.0608941 8.12849 34 22 3
1.41446 -0.164377 8.56788 167 135 82
-0.807833 0.555839 8.8019 231 203 164
1.09175 0.482036 8.61406 9 2 0
-0.93986 0.482448 8.67324 251 207 144
1.20336 0.465643 8.62773 202 171 132
0.826472 0.427046 8.71701 35 20 2
1.32071 0.414715 8.58011 175 147 103
0.976931 0.414301 8.62902 192 157 106
1.39081 0.296159 8.26826 143 125 91
0.949239 0.277325 8.60756 94 60 23
0.870546 0.271489 8.60946 122 81 52
0.814649 0.269841 8.60703 124 87 57
-0.5843 0.280857 8.81448 194 148 96
0.509406 0.244896 8.6617 119 84 50
1.02961 0.103167 8.37174 91 66 33
-0.493343 0.31846 8.891 195 147 88
1.06424 0.0707672 8.65976 96 70 38
1.11663 -0.0525503 8.30091 58 38 10
1.454 -0.0879563 8.49335 166 129 74
1.00661 -0.104756 8.23809 96 74 39
1.16651 -0.109698 8.03899 235 210 154
0.380288 0.369038 8.76899 251 216 168
0.740804 0.511983 8.77677 228 190 143
1.26362 0.418454 8.59314 186 157 118
0.975436 0.298851 8.58589 222 183 125
0.772901 0.254336 8.59066 236 197 141
0.975345 0.244195 8.56492 236 200 144
0.549016 0.246389 8.6527 255 251 186
1.04037 0.234167 8.49338 86 57 22
1.28031 0.216778 8.3229 164 136 100
0.750128 0.216836 8.62278 143 104 51
0.975226 0.197224 8.54511 217 181 126
1.25819 0.161881 8.32211 164 140 104
0.969365 0.0786947 8.46236 217 181 126
0.52629 0.0643676 8.52959 20 10 2
1.18519 0.0254181 8.23693 166 138 100
1.15311 0.00924523 8.2938 50 30 2
1.15977 -0.017192 8.21339 175 150 113
0.342087 -0.402316 9.03898 158 118 56
1.05015 -0.385227 8.74657 160 135 98
-0.135147 -0.391992 9.0849 113 71 9
-0.19258 -0.141123 8.56961 255 255 191
-0.517417 -0.201516 8.61891 147 103 54
1.0363 -0.207774 8.13939 242 212 148
1.07192 -0.290479 8.16839 63 42 9
1.16908 0.409047 8.6 109 75 27
0.82852 0.390468 8.65245 238 194 132
0.720186 0.358565 8.66878 132 98 52
1.0984 -0.135689 8.123 97 70 27
1.1226 -0.127711 8.11355 195 169 126
0.402161 -0.11814 8.49797 171 132 75
0.950085 0.314783 8.60654 131 92 44
1.14366 -0.110887 8.08874 84 65 26
-0.546829 0.317179 8.89665 142 100 62
-0.312313 -0.0999315 8.60924 255 232 175
0.697988 -0.1001 8.4125 244 207 145
0.923196 0.299275 8.60628 236 194 136
0.890795 0.299008 8.60922 245 203 139
1.39156 0.265976 8.22377 86 65 36
1.01859 0.219311 8.50965 189 156 115
0.952395 0.216949 8.56689 114 78 33
0.723843 0.0712954 8.53547 242 202 140
-0.287013 -0.0676244 8.66888 225 195 155
-0.261894 -0.0663184 8.66985 220 194 158
0.947459 0.0445596 8.48773 94 61 13
-0.10966 -0.0583217 8.65103 206 186 156
0.723671 -0.0516702 8.40529 124 93 46
0.959309 -0.0460108 8.38539 204 174 118
0.0218818 -0.0982572 8.55567 127 91 46
-0.267662 -0.103804 8.60659 255 219 153
-0.137135 -0.108717 8.57445 147 108 67
0.391616 -0.139781 8.49445 255 239 170
0.088425 -0.160961 8.5468 185 140 78
1.06745 -0.185132 8.11588 102 74 25
-0.687196 0.217532 8.69557 187 145 93
-0.737774 0.530354 8.87578 239 192 139
0.749425 0.485144 8.73551 122 91 57
1.05843 0.448894 8.62034 191 165 122
1.15285 0.422935 8.6176 227 185 131
0.857758 0.425549 8.68177 227 195 143
0.394135 0.434091 8.90557 162 145 121
1.35608 0.393791 8.56925 132 108 83
0.361519 0.398601 8.81476 224 184 143
-0.221342 0.340626 8.8735 255 243 172
0.380308 0.325265 8.74929 194 144 86
0.0160397 0.326615 8.82096 188 141 79
0.0602048 0.319738 8.81637 203 157 90
-0.684077 0.298286 8.74277 189 149 101
0.905511 0.278446 8.60251 136 95 55
0.715863 0.284421 8.64363 143 104 58
1.17046 0.507798 8.64132 7 0 0
1.00909 0.0855859 8.41101 176 147 104
1.23749 0.227619 8.48767 72 42 10
0.305773 -0.125403 8.51492 194 147 85
0.398148 -0.0763916 8.4982 156 119 66
1.17185 0.458128 8.61208 114 82 36
0.742241 0.185669 8.58944 154 120 63
0.823788 0.164642 8.55009 239 203 136
1.01833 0.433164 8.62356 123 100 75
0.301618 -0.105938 8.51293 255 226 157
0.505566 0.276011 8.66567 255 215 155
1.00737 0.0515173 8.4013 176 148 106
-0.53873 0.295167 8.88525 255 212 148
0.926732 0.0292797 8.48903 201 165 119
-0.50456 -0.236171 8.6411 255 237 167
0.724549 -0.00157268 8.49747 205 171 122
-0.147557 -0.129837 8.55716 255 235 176
