ply
format ascii 1.0
element vertex 141
property float x
property float y
property float z
property uchar red
property uchar green
property uchar blue
end_header
1.1729 -0.297349 11.2962 228 192 131
1.20539 -0.323946 11.293 38 11 0
1.30412 -0.265671 11.2162 227 194 144
1.09135 -0.636058 11.5186 155 133 105
1.06044 -0.633425 11.5223 168 147 112
0.579703 -0.63239 11.689 91 63 18
-0.316904 -0.628755 11.8529 84 52 8
1.93962 -0.330809 11.0951 138 116 75
-0.241809 -0.55969 11.8336 183 158 120
0.294572 -0.462363 11.787 42 25 6
1.12585 -0.285157 11.2723 238 198 134
0.799346 0.0801184 11.0564 255 222 161
1.31186 -0.511441 11.3913 95 64 17
1.74225 -0.476892 11.0572 156 135 98
0.802538 -0.670196 11.6883 237 203 137
1.32273 -0.912851 11.6856 3 0 0
0.418944 0.057124 11.2655 22 11 0
-0.332077 -0.56336 11.8513 216 186 122
0.0787702 -0.568122 11.7687 62 30 0
0.745238 -0.540198 11.5088 220 192 132
1.75746 -0.139557 10.9735 40 25 8
0.717651 -0.721635 11.7471 254 232 170
-1.03985 -0.34702 11.511 160 119 64
-0.760681 -0.0375306 11.4982 54 27 0
0.898748 -0.744608 11.7075 243 214 150
-1.08848 -0.78385 11.7167 158 115 56
1.52151 -0.0988629 10.9896 86 60 23
-0.317555 -0.605099 11.8497 110 82 43
-1.02487 -1.03165 11.9135 137 99 43
-0.758878 -0.101253 11.5263 96 60 28
0.975455 0.0195376 11.0324 41 23 8
-0.09647 0.373515 13.1733 154 126 90
-0.406644 0.37949 13.2224 144 115 72
0.942217 -0.0930554 11.143 212 179 131
1.4986 -0.0971655 10.9869 98 69 27
1.37211 -0.06629 10.9749 212 190 142
-0.829786 0.00802437 11.3423 240 208 158
1.38362 -0.150103 10.9782 22 11 5
1.7139 -0.195053 11.0304 41 20 0
-1.26106 -0.524608 11.4242 254 226 162
0.353543 -0.653157 11.7724 255 254 203
-1.2456 -0.662818 11.5013 246 211 148
0.943218 -0.0668043 11.1401 67 39 1
0.396582 0.085551 11.2871 134 109 79
-0.639435 0.294429 12.4926 208 174 129
1.24188 -0.287353 11.2833 208 172 120
1.31201 -0.330833 11.2314 221 188 136
-1.15965 -1.31703 12.1078 255 230 160
1.10176 -0.329151 11.3137 51 21 1
-0.530495 0.459597 13.2494 183 158 128
0.365089 -0.718906 11.8264 21 2 0
0.727516 -0.770063 11.7407 25 10 0
0.464001 0.08938 11.2587 134 107 75
0.795692 0.0828008 11.051 252 219 162
1.29758 -0.773954 11.5836 211 183 117
1.03956 -0.747382 11.6278 210 182 121
0.93854 -0.746036 11.6832 233 202 134
1.59615 -1.07232 11.5367 201 173 111
1.65281 -0.977067 11.3297 66 52 26
1.45134 -0.0768229 10.9471 194 159 105
0.501699 -0.00274098 11.2367 159 131 102
0.994749 -0.63746 11.564 86 57 17
0.441725 -0.00395354 11.2544 208 174 133
1.35843 -0.769668 11.5693 204 175 113
0.800228 -0.751797 11.696 255 241 168
-0.301606 -0.588853 11.8458 75 43 1
-0.18757 -0.553752 11.8208 203 174 127
-0.0897511 -0.549881 11.799 217 193 151
0.15205 -0.569751 11.7553 71 45 10
-0.36188 -0.54178 11.8617 58 30 0
0.0274944 -0.542296 11.7737 214 177 119
0.110162 -0.542623 11.764 215 187 135
-0.221622 -0.535961 11.8337 47 21 0
0.49503 -0.533302 11.6814 186 154 102
0.642277 -0.667564 11.7294 213 184 126
1.56187 -1.00559 11.4725 71 50 18
-1.31491 -0.599341 11.4203 65 43 25
1.35721 -0.766848 11.5528 201 172 113
0.885238 -0.797813 11.7115 9 4 0
1.49988 -0.967187 11.4617 170 146 91
1.30228 -0.619046 11.4999 34 17 0
0.931643 -0.115861 11.167 60 33 0
1.06204 -0.588466 11.5055 34 17 2
-0.0273987 -0.545626 11.8196 33 15 0
-0.673777 -0.504085 11.9543 62 33 5
0.0932463 -0.648056 11.7804 110 77 33
-0.868239 -0.160424 11.4955 116 72 23
-0.76077 0.060469 11.5035 41 25 12
0.673818 0.0391673 11.107 31 22 18
0.753181 -0.473686 11.5103 37 19 1
0.248182 -0.68353 11.797 211 178 115
-1.25553 -0.269031 11.1845 109 75 35
-1.28162 -0.226088 11.1654 246 211 155
1.06447 -0.0673651 11.0777 46 25 0
1.62867 -0.787477 11.3005 158 138 105
-1.20458 -0.736182 11.5513 122 86 38
1.57391 -0.125409 10.9907 206 171 121
1.04221 -0.357525 11.2994 236 203 146
-0.974526 -0.0461016 11.2661 251 217 164
-1.15311 -0.307119 11.3315 179 140 85
1.06969 -0.189436 11.1804 146 110 60
1.75409 -0.178312 10.9643 147 129 98
1.54644 -0.159253 11.0573 106 77 34
-0.741069 -0.133136 11.5473 235 194 149
1.01946 -0.433087 11.4113 138 105 55
-0.864321 0.172867 11.4988 36 21 3
1.0047 -0.459308 11.4247 227 198 147
0.144347 -0.525764 11.7616 72 43 1
0.80858 -0.462824 11.513 216 184 123
1.6384 -0.475466 11.2016 118 99 75
-1.29293 -1.00169 11.7569 53 37 25
0.262182 -0.495552 11.7762 123 99 65
-0.381391 -0.470425 11.9128 82 48 16
1.2916 -0.153596 11.0752 222 186 129
-0.295037 -0.647337 11.8532 237 202 148
1.48769 -0.805126 11.3327 184 156 104
1.33826 -0.474822 11.3652 212 180 126
-0.202947 -0.465791 11.8905 52 22 1
0.944946 0.0531344 11.0416 101 70 31
0.575093 -0.595152 11.6703 195 169 112
0.898434 0.0716341 11.027 243 207 148
0.0269368 0.102635 11.3776 121 104 83
1.58888 -0.612283 11.3297 132 107 79
0.039796 0.125569 11.3902 45 27 8
0.294289 -0.645495 11.7406 164 126 66
1.21554 -0.0116613 11.0634 63 44 24
1.03002 -0.265775 11.2345 250 214 155
1.58417 -0.738247 11.3825 50 35 17
-0.882953 0.0407715 11.3238 229 193 144
1.61838 -0.0780507 10.9607 85 63 28
1.21464 -0.00998145 11.0482 63 44 24
1.5424 -0.657104 11.4101 64 40 8
-1.21573 -0.12057 11.1795 244 202 141
1.32866 -0.690848 11.5155 90 63 23
-0.692189 -0.700944 11.9577 162 122 68
1.83789 -0.684774 11.021 82 64 24
-0.406148 -0.0934621 11.4682 172 134 83
-1.14877 0.346479 11.835 144 120 84
-0.349619 0.356387 13.13 79 53 17
1.52616 -0.30001 11.0778 205 171 124
1.29678 -0.213735 11.1632 219 185 128
