ply
format ascii 1.0
element vertex 147
property float x
property float y
property float z
property uchar red
property uchar green
property uchar blue
end_header
0.105203 -0.0387855 1.24186 38 17 2
0.101232 -0.0598646 1.27892 115 81 24
0.0261496 -0.0642815 1.29046 16 3 0
-0.152523 -0.0778181 1.34679 250 215 151
-0.0424911 -0.0468979 1.26933 112 79 33
0.0619486 0.0388204 1.11078 18 8 0
0.0602373 0.0335288 1.12062 244 208 149
-0.0742768 0.0366429 1.13225 38 22 10
-0.0335118 -0.0397024 1.2554 196 167 122
-0.0460319 -0.0380966 1.25394 73 44 12
0.100829 0.0281596 1.12604 51 27 7
0.07869 -0.00421647 1.18304 255 219 154
-0.13921 -0.0290915 1.26528 140 103 54
-0.0774659 -0.0349713 1.25258 69 40 7
0.131878 -0.0432933 1.24752 39 20 0
0.162513 -0.0878705 1.32613 203 177 118
0.113795 0.0224182 1.13555 232 189 120
0.173523 -0.0891476 1.32904 232 207 147
0.0377055 0.0348323 1.11882 27 12 1
-0.0756836 0.0290857 1.14623 66 35 4
0.00457815 0.0237337 1.14243 255 228 163
0.09645 0.00190752 1.17201 99 64 17
0.111251 0.00848243 1.15913 115 78 37
0.126847 0.00365603 1.16633 228 193 140
0.128476 -0.00333969 1.17848 217 182 128
-0.0723572 0.0181202 1.16331 143 97 33
0.106372 -0.00489948 1.18287 53 25 0
0.109104 -0.00848938 1.18914 235 203 145
0.180708 -0.093731 1.33603 160 138 78
0.176672 -0.0122924 1.1927 164 138 100
-0.0723487 0.02067 1.15914 253 211 158
-0.0265393 -0.0385938 1.25264 208 176 121
-0.132882 0.0206927 1.18565 255 238 168
0.173249 -0.0449042 1.25048 158 132 96
0.00101664 -0.0492984 1.26888 103 71 29
-0.0471134 -0.0482503 1.27227 254 223 166
0.0351944 0.0371807 1.11494 191 169 133
0.0417755 0.0374072 1.11375 155 134 107
0.171849 -0.05324 1.2653 164 139 103
-0.0296293 -0.0510716 1.27533 126 94 55
-0.136989 0.00055315 1.21808 255 228 163
0.0195885 -0.0599738 1.28427 255 227 150
0.111271 -0.0679853 1.29144 222 188 116
0.148798 -0.0723229 1.29804 182 161 116
0.168169 -0.086658 1.32402 76 53 14
0.0376992 0.0349407 1.11876 27 12 1
0.104651 0.0306382 1.12141 232 201 147
0.0396819 0.0307914 1.12655 216 174 122
0.0890995 0.0268058 1.12916 76 44 2
0.0428095 0.0253194 1.13587 240 205 155
0.0338566 0.0246999 1.13781 255 229 179
0.0880651 0.0212548 1.13892 73 40 6
-0.069024 0.0221953 1.15614 152 109 53
0.0461056 0.0117474 1.15734 255 236 163
0.124938 -0.000238655 1.17328 97 61 24
0.186073 -0.0969081 1.34174 233 204 140
0.0110268 -0.0370502 1.24592 202 177 133
-0.00471254 -0.0376373 1.24855 228 190 128
-0.0402031 -0.0429388 1.26189 81 49 2
0.105284 -0.043795 1.25088 171 150 114
0.108527 -0.0439511 1.25105 206 177 135
-0.0266573 -0.0385985 1.25275 208 176 121
0.0111225 -0.0401244 1.25126 59 34 0
0.000196621 -0.0409103 1.25371 66 32 0
-0.140866 -0.0183118 1.24911 242 205 137
-0.0558527 -0.0540418 1.2831 115 77 28
0.0254626 -0.0365564 1.2437 201 174 129
0.0439292 -0.0367167 1.24231 197 169 113
0.137077 -0.0731639 1.30008 8 2 0
0.169937 -0.0953759 1.33923 220 196 134
0.0954235 0.00825391 1.16112 124 88 39
0.0795543 -0.00497502 1.18393 237 199 130
0.0536083 0.0115049 1.15727 251 207 142
-0.0977869 0.0108366 1.18462 163 123 75
0.113668 -0.00201569 1.17686 227 188 128
0.148686 0.0356223 1.10543 146 123 86
0.167539 0.0281495 1.11979 171 148 114
0.156859 0.0344622 1.10804 4 0 0
0.103523 0.00761175 1.16141 155 116 77
-0.130312 0.00636532 1.20634 188 149 99
0.102715 0.0244208 1.13282 235 193 125
0.121809 0.00894528 1.1578 112 80 38
0.0990188 0.00481378 1.16688 235 197 137
0.120397 -0.00101445 1.1746 194 157 104
-0.140847 -0.00374607 1.22687 255 227 161
-0.0736653 -0.0381504 1.25788 136 104 65
-0.0122354 -0.0452907 1.26325 205 176 118
-0.159123 -0.11918 1.41503 251 217 152
0.00607596 0.0383597 1.11529 111 95 80
0.0545332 -0.0499107 1.26485 234 203 146
0.120782 0.0141027 1.14882 126 88 41
0.0527418 -0.0425811 1.25229 211 177 118
0.137695 -0.0457423 1.25188 175 148 100
-0.128248 -0.0453054 1.286 160 117 62
-0.0402188 -0.0490573 1.27285 245 210 147
-0.14811 -0.0705952 1.33389 149 109 49
0.163682 -0.0616278 1.27924 65 45 22
0.156733 -0.0552693 1.26914 181 151 96
0.103615 0.0334147 1.11621 47 31 5
0.156785 -0.0556088 1.26936 183 154 96
0.0889086 0.0244231 1.1335 205 172 131
0.138772 0.0164698 1.14612 200 167 113
0.164496 -0.0956913 1.33956 22 14 0
0.101243 -0.0284201 1.22398 139 103 47
0.00224965 0.02037 1.14868 175 132 78
-0.042952 0.0214583 1.15289 186 141 81
-0.075999 0.0188281 1.16353 245 200 142
0.166921 0.0148452 1.14401 46 22 0
-0.109809 0.00667007 1.19479 177 129 75
0.108887 0.000613129 1.17302 231 189 121
0.0104373 -0.0531186 1.2742 144 112 45
0.117539 0.0122204 1.15221 230 192 134
0.150575 -0.0633107 1.28308 70 48 17
0.149747 0.0187638 1.1386 97 64 17
0.0928511 -0.00502561 1.18385 127 93 47
0.098118 -0.0458164 1.25468 85 57 15
0.16484 -0.000315073 1.1706 42 16 0
0.134835 -0.00273235 1.17738 184 151 104
-0.0895442 -0.0127211 1.21985 157 114 57
-0.133724 0.0316131 1.17025 244 197 136
0.00854457 -0.050641 1.27016 243 207 148
0.134554 -0.0304128 1.22521 200 171 117
0.133031 -0.0232872 1.21276 212 179 123
0.0452143 0.0306423 1.12597 173 140 101
0.158453 -0.044429 1.24828 72 41 5
0.114234 0.0249056 1.13054 239 196 126
0.00285994 -0.04464 1.26052 216 184 129
-0.0836173 -0.0553815 1.28938 163 126 70
0.174248 -0.078656 1.31041 176 153 113
-0.140708 -0.0704737 1.33136 162 123 61
0.0771255 -0.0250362 1.21895 214 179 116
0.124968 0.0112249 1.15346 218 179 124
0.179486 -0.0873431 1.32608 127 105 54
0.165993 0.00498661 1.16141 48 24 0
0.101382 -0.00786818 1.18846 241 204 141
0.0945211 -0.0194195 1.20885 131 96 44
0.162994 -0.0355758 1.23316 136 113 83
-0.033806 0.0177283 1.15765 255 244 172
0.164125 -0.0712817 1.29685 74 51 11
0.100385 -0.0049657 1.18365 219 183 127
0.14101 -0.0486814 1.25688 86 59 19
0.11257 -0.0386899 1.24092 174 138 81
0.123014 0.00473203 1.16484 112 79 32
0.0568513 -0.0528027 1.2696 157 122 63
0.0991465 -0.0181843 1.20656 163 129 73
0.138207 -0.00268257 1.17893 79 54 17
0.166367 0.00759007 1.15681 59 31 3
