ply
format ascii 1.0
element vertex 80
property float x
property float y
property float z
property uchar red
property uchar green
property uchar blue
end_header
0.177455 -0.148992 4.88926 245 212 151
-0.229653 -0.166463 5.21743 91 59 8
0.392085 0.0606179 4.9509 132 95 44
0.480369 0.197358 5.03672 239 197 133
0.581005 0.145426 4.81959 199 166 115
0.666228 0.217057 4.94993 187 158 119
0.428875 0.0856956 4.9552 150 110 77
-0.00646437 0.050947 5.36538 255 251 170
0.391518 -0.0937699 4.80763 58 30 5
0.622645 -0.176021 4.42359 229 207 149
0.699263 0.186705 4.89867 183 156 108
0.440962 0.160259 5.00474 239 195 125
0.509169 0.0945348 4.91799 97 63 23
0.46374 0.0895124 4.9464 119 78 48
0.525322 0.0729328 4.89334 230 194 138
0.0161999 0.0374158 5.32833 21 10 0
0.524046 0.0445734 4.86905 213 176 118
0.69716 0.0381991 4.65906 161 135 98
0.683305 0.00706726 4.64203 161 137 104
0.518103 -0.0579507 4.77928 206 173 121
0.63994 -0.0795667 4.58764 163 137 100
0.623845 -0.106726 4.56726 168 144 108
0.483597 -0.120865 4.7314 207 177 116
-0.0457307 -0.16392 5.02434 115 75 38
-0.258038 -0.184403 5.20355 255 228 168
0.458121 0.187036 5.03483 231 198 140
0.124036 0.137401 5.26345 255 229 167
-0.465219 0.0947414 5.99704 80 49 18
-0.0206297 0.121903 5.38281 255 228 159
-0.0631133 0.106816 5.41233 166 119 57
0.510857 0.116878 4.93496 119 82 32
0.177725 0.0714885 5.22462 255 226 155
0.506608 -0.0480684 4.80684 88 54 9
0.517708 -0.0572529 4.77606 206 173 121
0.512202 -0.108913 4.72124 188 159 105
-0.179993 -0.169683 5.14666 210 176 119
-0.22647 -0.182507 5.16764 253 214 154
0.185676 -0.159328 4.87982 160 124 63
-0.296209 -0.20942 5.21087 118 80 33
-0.0379233 -0.148778 5.04307 227 198 142
0.385803 -0.108689 4.78098 193 167 127
0.167104 0.14444 5.22458 235 199 153
-0.483693 0.0260294 5.85407 152 110 61
0.548721 0.0532967 4.83295 174 141 100
0.620716 -0.0619204 4.67988 135 108 78
0.558372 0.0599358 4.79705 78 51 13
0.631061 -0.0452156 4.69956 134 109 79
0.426048 -0.102027 4.79898 190 155 95
0.359626 -0.145547 4.76161 237 202 139
0.678951 0.065343 4.7968 60 31 5
0.125301 -0.156323 4.91644 254 216 152
0.655267 0.00305679 4.72249 123 102 77
-0.424585 -0.231337 5.33296 178 136 81
0.695039 0.0836383 4.77292 119 95 73
0.349392 0.134444 5.07645 164 122 70
-0.0058528 -0.174197 4.9873 178 136 68
0.380465 0.155294 5.05647 208 173 127
0.485158 0.0947582 4.93876 132 95 47
0.574768 -0.167723 4.54491 81 56 15
-0.0330435 0.104899 5.37701 194 149 91
0.509761 0.0769024 4.90324 114 81 34
0.180209 0.185525 5.31821 33 17 1
0.549732 -0.0287244 4.68514 90 65 32
0.710009 0.129471 4.8323 60 33 4
0.519937 -0.0321075 4.80223 212 178 122
0.598536 -0.178124 4.47886 184 159 119
0.642761 0.142971 4.88287 109 72 25
0.622962 -0.0825387 4.63323 44 27 6
0.593913 -0.0977794 4.68146 84 53 11
0.565516 -0.196681 4.50963 195 164 112
0.492998 0.050827 4.90016 205 168 111
0.494755 0.107244 4.94053 236 193 135
0.52527 0.10616 4.91194 223 182 124
0.364942 -0.0273696 4.8976 144 109 53
0.401446 0.0355089 4.90819 233 195 133
0.69734 0.097494 4.81896 65 37 7
0.44362 0.0570867 4.91909 218 174 107
0.607379 -0.1609 4.49542 127 108 82
0.38525 -0.0208358 4.8884 166 129 72
0.47046 -0.0972678 4.78127 185 148 91
