ply
format ascii 1.0
element vertex 83
property float x
property float y
property float z
property uchar red
property uchar green
property uchar blue
end_header
0.292424 0.100853 8.92281 113 80 46
0.00452179 0.102521 8.96156 146 114 74
0.841608 0.528416 8.9095 147 113 72
0.931202 0.456997 8.91058 8 5 3
1.48503 -0.395132 8.35821 161 131 82
1.40066 -0.0741014 8.62082 174 143 90
1.4556 -0.270426 8.3371 158 131 84
-0.840084 0.526571 8.73384 33 20 9
-0.861013 0.478249 8.72814 165 135 92
-0.166878 0.182785 9.01888 178 144 99
1.14147 0.28983 8.82446 15 6 1
-0.336605 0.535872 9.06445 191 157 115
-0.439957 -0.0660203 9.0424 33 27 18
-0.574142 -0.319017 8.37881 47 33 20
1.02217 -0.356437 8.04888 33 21 2
-0.566581 -0.649992 9.23067 224 204 162
1.2812 -0.462805 8.09308 65 45 8
-0.563739 0.766645 9.02423 157 128 101
-0.339672 0.604087 9.03763 64 37 12
-0.424497 0.457921 9.13542 19 11 7
0.916436 0.35985 8.73554 40 24 0
0.520086 0.200213 8.90314 173 144 98
1.40692 0.131473 8.68015 168 144 111
-0.459408 0.0611788 8.958 80 50 14
-0.90752 0.00274641 8.42881 158 132 94
-0.351896 -0.026322 9.0591 186 147 94
-0.102493 0.596158 9.00383 55 32 4
-0.370581 0.544442 9.06401 48 23 0
-0.146753 0.499101 9.06307 179 141 97
0.495051 0.49169 8.96946 138 111 80
-0.458548 0.0022881 9.00993 73 45 9
-0.558582 -0.376666 8.43344 63 35 13
0.478676 0.0768985 8.77199 163 133 93
-0.594859 -0.356952 8.33063 187 162 124
0.472544 0.0393505 8.79767 157 126 91
0.449836 0.0418605 8.80255 148 121 80
0.465063 0.0591326 8.79189 65 43 9
-0.195538 0.0771255 8.90319 65 38 9
1.52645 -0.471135 8.39004 5 0 0
-0.417513 0.535895 9.07091 179 146 108
-0.103535 0.130249 8.89315 105 75 33
-0.420682 0.197787 9.03504 157 121 88
-0.904286 0.0374159 8.45895 36 19 4
0.175879 0.152469 8.86382 72 47 21
-0.293041 0.0564077 8.93038 79 50 18
-0.357776 0.0882343 8.9374 188 155 107
-0.388522 0.080369 8.9381 81 52 12
-0.15517 0.05698 8.90419 67 43 10
1.40761 0.0105493 8.63653 176 148 108
-0.64396 -0.0091014 8.44818 61 40 15
-0.166655 -0.0435974 9.04874 9 0 0
-0.302213 0.600211 9.01983 178 144 102
-0.100784 0.648376 9.01405 74 48 14
-0.118133 0.704945 9.13484 153 128 95
0.586842 0.701873 8.95923 65 42 11
1.03476 -0.305721 8.0494 37 23 3
-0.294077 0.0563246 8.93148 79 50 18
0.560658 0.517697 8.91186 51 33 18
-0.825618 -0.522383 8.31052 99 72 32
1.27771 -0.486606 8.11009 158 138 91
0.352792 -0.287275 8.15051 128 109 74
1.06357 0.407402 8.89471 13 7 2
1.06864 -0.318095 8.02729 163 144 101
1.48407 -0.342353 8.28863 139 122 96
0.508558 -0.327228 8.08728 32 17 1
0.0198078 -0.312779 8.26257 24 10 0
1.5239 -0.467486 8.40267 9 2 0
0.98124 -0.292549 8.10625 69 49 18
-0.376982 0.598747 9.03557 172 145 113
0.465406 0.583914 8.91935 74 50 16
-0.639334 -0.275384 8.30939 50 30 5
0.69167 0.566571 8.90383 138 110 82
0.815692 -0.238414 8.10606 147 128 96
-0.0973096 0.311399 6.02648 17 4 0
0.668097 0.532927 8.86209 70 44 20
0.337719 -0.331249 8.1824 34 17 1
-0.166221 -0.0405635 9.02296 9 0 0
0.495626 0.0950213 8.76547 69 47 14
0.489167 0.0536055 8.78298 51 28 0
0.946462 -0.291197 8.11211 72 48 20
0.501491 0.539965 8.92004 130 103 69
-0.30943 0.130358 8.92742 192 161 115
0.245889 0.516815 8.98768 83 58 28
