ply
format ascii 1.0
element vertex 69
property float x
property float y
property float z
property uchar red
property uchar green
property uchar blue
end_header
0.760364 0.756774 10.6119 169 138 93
0.987219 0.573686 10.3958 142 110 68
0.853118 0.685505 10.4749 7 4 4
1.39316 0.215986 10.0028 12 5 5
-0.516196 -0.661803 10.4537 25 16 10
-0.615861 -0.764813 10.6691 32 26 19
1.41485 0.15768 10.007 180 154 104
-0.545115 0.0415295 10.5183 85 58 31
-0.673236 -0.308461 9.58046 35 17 2
1.64465 0.124856 10.1084 159 137 106
-0.241672 0.123394 10.4477 67 44 15
-0.219814 -0.592906 10.2692 211 181 128
0.589759 0.524659 10.6097 158 129 90
-0.544293 0.401524 10.8289 182 162 137
-0.544209 -0.0320424 10.5346 71 42 8
0.521871 -0.0394503 10.3005 176 144 105
0.30362 -0.348183 9.33187 161 140 102
0.603297 -0.343599 9.10999 46 29 8
0.140607 -0.543945 10.1095 79 53 7
1.3845 -0.799879 9.93708 147 130 94
1.59649 -0.82281 9.48329 159 145 113
-0.158423 -0.186601 9.47304 149 135 110
0.556578 0.0687017 10.2076 165 137 98
0.566734 0.0412205 10.1999 57 32 4
-0.670806 -0.149183 9.64185 73 49 23
0.911966 -0.250475 9.2049 46 35 18
1.15117 -0.124686 9.91815 59 37 8
0.540751 0.0466731 10.2177 60 34 11
-0.0113082 -0.267378 9.37621 127 108 73
1.17568 -0.276722 9.11717 33 22 3
0.663399 0.562407 10.4975 47 31 12
1.2777 0.338314 10.1755 165 142 104
-0.348454 0.0391965 10.4194 79 53 19
1.62662 -0.103001 9.96732 173 144 89
1.16079 -0.334071 9.10805 36 23 3
1.45251 -0.495666 9.16865 157 137 92
1.66604 -0.541227 9.4285 159 132 94
-0.589838 0.214951 10.3847 194 161 122
1.63722 -0.00724368 10.0018 179 153 114
-0.424944 -0.00735275 10.4974 177 143 95
0.467442 0.0100574 10.2458 172 139 89
-1.07517 0.0520872 9.88379 153 125 92
0.527069 -0.311931 9.14331 118 98 64
-0.758379 0.033119 9.82758 59 38 15
-0.186056 0.041757 10.3652 69 42 12
0.548975 0.0224059 10.2272 143 117 85
-0.232369 0.0646392 10.4029 61 38 2
0.0134558 -0.293728 9.3921 18 7 0
1.34539 -0.661624 9.82215 135 111 80
-0.962908 -0.521421 9.42076 101 73 35
-1.0949 0.130897 9.87473 21 13 6
0.313205 -0.210562 9.34375 136 122 97
1.21107 -0.28563 9.06752 162 144 101
-0.423926 0.0754558 10.4692 187 154 106
-0.460486 0.0663926 10.4734 88 54 13
-0.82886 0.167116 10.1152 91 64 32
0.066545 -0.271507 9.35563 120 106 77
1.63841 -0.57407 9.36984 75 52 17
1.7 -0.362274 9.44107 145 126 100
0.203544 0.149836 10.3479 91 63 27
0.570788 -0.292589 9.13459 37 21 0
0.576902 0.0894151 10.211 72 48 15
0.64582 0.494673 10.548 134 106 69
1.11596 -0.268455 9.19305 61 42 12
0.520697 0.0263722 10.2141 157 128 85
0.390652 -0.288466 9.24996 108 91 67
0.394024 -0.254534 9.23595 130 111 79
1.22484 0.177802 10.0509 82 59 24
-0.123989 0.125846 10.3982 103 75 37
