ply
format ascii 1.0
element vertex 77
property float x
property float y
property float z
property uchar red
property uchar green
property uchar blue
end_header
0.222351 0.0886118 3.55273 245 209 148
-0.142445 -0.182933 3.69789 88 54 9
-0.284558 0.0407748 3.65545 56 33 18
-0.284628 0.0176536 3.65803 99 61 28
-0.116604 -0.159822 3.69868 175 149 114
0.410555 -0.0531505 3.55615 215 183 128
0.373885 -0.0546752 3.57308 43 18 0
0.338834 -0.0568171 3.57765 52 25 0
0.397556 -0.224267 3.61103 221 189 121
-0.4117 -0.108318 3.60965 169 126 66
0.544706 -0.118705 3.49635 160 142 108
0.398416 -0.183215 3.6 208 178 121
-0.0055947 -0.187484 3.67657 109 77 35
-0.260995 -0.17938 3.71765 70 42 16
0.51205 -0.208795 3.53016 162 139 104
0.254762 -0.232305 3.63993 31 10 0
0.439344 -0.248939 3.5945 172 150 110
0.216321 -0.137307 3.61176 222 193 130
0.120413 0.0599851 3.59102 209 171 122
0.34577 0.0565744 3.5374 229 199 152
0.359401 -0.0152414 3.55908 121 82 42
0.229695 -0.218743 3.63707 255 240 166
0.00100028 -0.152034 3.68068 222 190 136
-0.0257761 -0.151975 3.68354 212 173 118
-0.0654958 -0.155403 3.69014 217 192 149
-0.146596 -0.161359 3.70264 215 185 120
0.435194 0.0543388 3.50593 214 190 144
0.288812 0.0353453 3.55218 208 175 128
0.267364 0.0260702 3.56817 110 71 27
-0.279576 -0.272615 3.72318 247 221 158
0.306084 -0.0176936 3.55968 131 93 42
-0.298391 -0.0198716 3.64603 142 104 59
0.330939 0.047624 3.53738 44 21 0
0.192969 0.0616962 3.54892 237 206 146
0.130692 -0.146602 3.66011 193 161 109
-0.109972 -0.152665 3.70172 55 27 1
-0.156858 -0.155203 3.70824 67 38 2
-0.136942 -0.170245 3.70131 83 47 2
0.549871 -0.281148 3.49718 183 158 107
0.298183 -0.175546 3.61781 85 56 12
0.303627 -0.182667 3.61649 184 157 117
0.48521 0.040576 3.50862 92 61 26
0.335938 0.0328506 3.53726 235 196 131
-0.356978 0.06003 3.58884 247 213 157
0.237709 -0.112822 3.61862 219 184 124
-0.473182 -0.285309 3.63609 47 34 22
0.466611 0.0297609 3.51112 216 179 121
0.294874 -0.0996929 3.60217 129 95 47
0.000821958 -0.0949591 3.87541 215 176 123
-0.134963 -0.189205 3.69639 253 219 154
0.401552 -0.267154 3.59832 4 1 1
0.393246 0.00212078 3.54735 121 86 38
0.295032 -0.0553915 3.59176 107 76 32
-0.381285 -0.0570674 3.62935 161 118 62
0.363565 -0.0460479 3.57651 230 191 131
-0.401766 -0.213 3.64244 149 105 53
0.416725 -0.110883 3.57962 210 178 123
-0.00883186 0.0224968 3.62017 153 108 62
0.0153947 -0.160893 3.67699 72 47 10
-0.306844 -0.0988729 3.67166 171 128 69
-0.047051 -0.176588 3.68056 166 138 86
0.140499 0.0607869 3.58796 164 135 101
0.477854 0.0413295 3.50887 108 73 36
0.277975 0.0330901 3.56107 224 185 127
0.492639 0.0158931 3.51905 92 61 15
-0.0181861 0.087996 3.63593 112 96 72
0.346651 -0.154765 3.6107 170 136 81
0.382298 0.065503 3.53811 74 51 28
0.309755 -0.0971377 3.59358 143 110 57
0.406239 -0.00790444 3.54306 217 180 124
0.519919 -0.10089 3.53463 120 100 78
0.491211 -0.156547 3.57215 66 37 2
-0.0192422 -0.175058 3.67729 195 161 104
0.0130466 -0.147011 3.68232 84 55 7
-0.419365 -0.028144 3.58306 180 137 85
0.542151 -0.0391676 3.51411 121 99 75
0.409647 -0.193742 3.6041 99 70 28
