ply
format ascii 1.0
element vertex 129
property float x
property float y
property float z
property uchar red
property uchar green
property uchar blue
end_header
0.021526 -0.0525401 0.953952 255 255 207
0.156317 -0.054448 0.950589 188 158 96
-0.0868714 -0.0017862 1.02524 250 216 163
0.0870143 -0.0488623 0.959055 188 165 130
0.0843166 -0.0487405 0.959165 185 160 121
0.137563 -0.0663544 0.936592 17 11 1
-0.0984274 -0.100886 0.887024 255 246 172
-0.0294132 -0.0470871 0.96116 178 153 112
0.162966 -0.028546 0.982777 19 11 1
0.00728343 -0.0593749 0.944919 9 3 0
-0.079851 0.00122216 1.03054 38 24 11
0.0850231 -0.0451103 0.963837 36 17 1
-0.0673313 -0.0719261 0.928758 247 221 159
-0.0771968 -0.0827496 0.913387 242 212 145
0.093997 0.00343643 1.02298 45 24 1
0.0572563 -0.041375 0.967141 213 187 126
-0.0652472 -0.0530439 0.954906 65 39 15
0.16117 -0.0516217 0.954101 203 175 124
0.0404937 -0.0533634 0.953197 196 157 93
0.0123207 -0.0549119 0.950408 215 179 108
-0.0632221 -0.062161 0.942667 238 197 127
0.10319 -0.0600078 0.946332 213 181 117
0.0529481 -0.0605974 0.943979 30 13 0
0.065607 -0.0614209 0.943141 22 6 0
0.0311791 0.010748 1.03372 25 13 3
-0.0789814 -0.00684578 1.01888 56 30 5
0.106861 0.00087889 1.02007 239 200 136
0.0950722 -0.000458223 1.01802 233 200 137
0.106355 -0.0183491 0.997703 198 161 113
0.113075 -0.0212431 0.993306 218 185 137
0.0926172 -0.0222067 0.992106 50 21 0
0.0746923 -0.00205988 1.0166 113 74 30
0.149296 -0.0390094 0.970775 160 143 108
0.00433092 -0.0463443 0.961492 71 45 12
0.10469 -0.0510799 0.957112 207 182 129
0.125356 0.00542073 1.0255 213 189 145
0.139627 -0.0538716 0.953031 152 130 94
0.0525338 -0.0566976 0.948852 255 241 178
0.135633 -0.0591512 0.946118 161 139 105
0.113509 -0.0658813 0.938884 176 155 114
0.098556 0.00604153 1.0265 230 202 152
0.0817759 0.00248397 1.02214 58 32 0
0.0356677 0.000148925 1.01934 250 216 164
0.079888 -0.00228028 1.01605 57 28 0
-0.0650513 -0.0107653 1.01111 152 114 63
0.113303 -0.0157297 1.00069 229 194 144
-0.0521212 -0.0302614 0.993475 84 45 5
0.109218 -0.0379245 0.973356 91 58 13
-0.0370238 -0.0477213 0.960536 218 185 122
-0.100035 -0.066065 0.936796 157 116 56
0.035604 0.0138426 1.03798 132 107 79
0.0331843 0.00551151 1.0265 212 175 126
-0.0878505 -0.0175751 1.00465 122 74 30
0.0679502 -0.0584676 0.947343 250 228 162
0.0998786 -0.012082 1.00448 131 94 47
-0.0806432 -0.0217952 0.997525 122 84 40
0.0848829 -0.0131882 1.00227 141 107 57
0.0997371 -0.0193121 0.996152 230 193 133
0.00606784 -0.0556687 0.949929 223 188 124
0.0342098 -0.0425349 0.966747 175 146 99
-0.00638635 -0.0446985 0.963858 214 175 120
-0.0396711 -0.0463482 0.962687 63 35 1
-0.0164503 -0.0457066 0.962644 215 193 150
-0.0344176 -0.0495238 0.957972 77 44 2
-0.0247211 -0.0464114 0.961971 207 178 129
-0.00637781 0.0116034 1.03717 120 103 84
0.0781752 -0.0493728 0.958445 80 50 13
0.109694 0.00920073 1.03102 66 46 24
-0.00310637 -0.00537196 1.01338 161 119 69
0.139304 0.00232454 1.02241 92 61 26
0.0138154 -0.0407204 0.969694 117 94 68
0.0784634 -0.057517 0.948606 113 83 30
0.148538 -0.000141735 1.02003 124 92 48
0.103112 -0.0701268 0.933179 6 2 0
0.0824389 0.0177223 1.0407 230 198 153
0.110198 -0.00777415 1.01014 144 108 59
0.0815879 -0.0341006 0.977171 226 196 143
0.155964 -0.0068819 1.01201 41 21 1
0.0791088 -0.0321979 0.979719 121 86 40
0.113631 -0.0112323 1.00663 232 193 140
0.0794704 -0.0509647 0.956386 181 156 118
0.0817028 -0.0298417 0.982523 230 197 138
0.0697941 0.0166398 1.03976 250 214 152
-0.101402 -0.0337977 0.983785 161 117 64
0.0803562 -0.0217477 0.99268 113 79 35
0.0412593 -0.0500964 0.956977 95 67 21
-0.00520445 0.013628 1.03993 48 33 11
0.149678 0.00459777 1.02573 90 66 32
0.0873117 -0.0160419 0.998999 241 204 148
0.151839 -0.0183054 0.997702 120 103 77
-0.113543 -0.0307458 0.989423 188 148 93
0.148034 -0.0190731 0.997408 40 18 0
0.112296 -0.0347267 0.97744 212 179 125
-0.0798376 -0.0387272 0.974505 144 101 43
0.0833485 -0.0317838 0.98013 149 114 62
0.11505 -0.00402956 1.01405 220 181 127
0.127929 -0.0617317 0.943638 59 42 17
0.122808 -0.0588545 0.943777 186 158 104
0.130924 -0.0560738 0.951069 49 34 14
-0.0762845 -0.0147038 1.00739 248 203 157
0.140064 -0.00400442 1.01513 96 64 20
-0.00432905 -0.0498867 0.956667 182 153 94
0.108712 -0.0593874 0.947099 199 168 109
-0.0115279 -0.0504555 0.955951 154 125 77
0.142106 -0.0333109 0.979229 118 99 75
0.137198 0.00238172 1.0225 101 67 26
-0.0648345 -0.0565198 0.949917 247 209 145
-0.035697 -0.0507318 0.956285 101 71 35
0.0916293 -0.044523 0.965163 163 130 77
0.0632612 -0.0352568 0.975736 217 184 125
-0.065941 -0.0456736 0.966099 62 36 11
-0.0922662 0.000133023 1.02969 209 174 125
0.0837192 0.0148433 1.03723 97 68 25
0.0870062 -0.025016 0.988583 241 207 148
0.143505 -0.0766372 0.923452 183 160 113
0.0826817 -0.0210658 0.993074 104 72 36
0.135498 0.0069935 1.02802 192 159 106
0.135786 -0.0782116 0.921532 227 210 157
-0.100454 -0.00729459 1.01983 249 216 160
-0.123168 -0.0166286 1.01289 250 205 145
0.144096 -0.000213098 1.01954 208 174 120
0.133291 -0.000906509 1.01836 216 178 126
-0.107373 -0.0464678 0.965543 160 117 56
0.0869469 -0.0244664 0.988596 230 196 140
-0.0662612 -0.0595512 0.94593 163 122 67
0.0411132 -0.0470419 0.960777 184 157 103
0.107322 -0.053281 0.954718 96 67 27
0.0165 -0.0517276 0.954354 166 131 67
0.144329 0.00783271 1.02928 196 167 118
