ply
format ascii 1.0
element vertex 147
property float x
property float y
property float z
property uchar red
property uchar green
property uchar blue
end_header
0.101821 -0.0572466 1.28624 38 17 2
0.0975189 -0.0803696 1.32965 115 81 24
0.0212308 -0.0839719 1.34248 16 3 0
-0.161905 -0.101198 1.40413 250 215 151
-0.0477007 -0.0646364 1.31624 112 79 33
0.0600088 0.0262485 1.13556 18 8 0
0.0581919 0.0206807 1.14659 244 208 149
-0.0752371 0.0227255 1.15596 38 22 10
-0.038248 -0.0568004 1.30005 196 167 122
-0.0508287 -0.0550953 1.29804 73 44 12
0.0983285 0.0146259 1.15328 51 27 7
0.0757612 -0.0193972 1.21791 255 219 154
-0.144695 -0.0493216 1.30608 140 103 54
-0.0824533 -0.0520035 1.29551 69 40 7
0.128676 -0.0626271 1.29312 39 20 0
0.159674 -0.113071 1.38608 203 177 118
0.111126 0.00834758 1.16416 232 189 120
0.170926 -0.114805 1.3896 232 207 147
0.0359031 0.0223022 1.14423 27 12 1
-0.0770626 0.0148283 1.1718 66 35 4
0.00264193 0.0107451 1.17031 255 228 163
0.0936047 -0.0131055 1.20548 99 64 17
0.108447 -0.00632503 1.19094 115 78 37
0.123945 -0.011712 1.19932 228 193 140
0.125522 -0.0192272 1.21324 217 182 128
-0.0743299 0.0038889 1.19174 143 97 33
0.103424 -0.0205963 1.218 53 25 0
0.106112 -0.0244934 1.22522 235 203 145
0.178286 -0.120171 1.39801 160 138 78
0.173713 -0.0298653 1.22993 164 138 100
-0.0741838 0.00650041 1.18693 253 211 158
-0.0311451 -0.0555442 1.29699 208 176 121
-0.134931 0.000943328 1.21131 255 238 168
0.170436 -0.0653552 1.29685 158 132 96
-0.0037293 -0.067387 1.31656 103 71 29
-0.0524572 -0.0660871 1.31962 254 223 166
0.033483 0.0246971 1.13977 191 169 133
0.0400083 0.0249407 1.13857 155 134 107
0.169059 -0.0745403 1.31418 164 139 103
-0.0348684 -0.0692614 1.32356 126 94 55
-0.140395 -0.0192091 1.24957 255 228 163
0.0147124 -0.079213 1.33503 255 227 150
0.107596 -0.089516 1.34455 222 188 116
0.145696 -0.0952172 1.35262 182 161 116
0.165447 -0.11186 1.38358 76 53 14
0.0358992 0.0224028 1.14416 27 12 1
0.102149 0.0171343 1.14807 232 201 147
0.0377435 0.0179714 1.15295 216 174 122
0.0866762 0.0133643 1.15666 76 44 2
0.040695 0.0122651 1.16359 240 205 155
0.0317826 0.0116177 1.1656 255 229 179
0.0855586 0.00753332 1.1677 73 40 6
-0.0707822 0.00813228 1.1836 152 109 53
0.0436118 -0.00202493 1.18806 255 236 163
0.122013 -0.0158732 1.20723 97 61 24
0.183796 -0.123892 1.40488 233 204 140
0.00686963 -0.0541095 1.28978 202 177 133
-0.00904683 -0.0546031 1.29261 228 190 128
-0.0451796 -0.0603023 1.30754 81 49 2
0.101838 -0.0627553 1.29676 171 150 114
0.105111 -0.063016 1.29698 206 177 135
-0.0312649 -0.0556355 1.29707 208 176 121
0.00685188 -0.0574042 1.29606 59 34 0
-0.00421936 -0.0581346 1.29878 66 32 0
-0.14561 -0.0385304 1.28632 242 205 137
-0.0616307 -0.0724289 1.33221 115 77 28
0.0214564 -0.0537191 1.28739 201 174 129
0.0400804 -0.0540706 1.28605 197 169 113
0.133776 -0.0958615 1.35498 8 2 0
0.167279 -0.12174 1.40179 220 196 134
0.092676 -0.00637556 1.193 124 88 39
0.0766108 -0.0201827 1.21896 237 199 130
0.0510796 -0.00229086 1.18813 251 207 142
-0.100264 -0.005115 1.21463 163 123 75
0.110743 -0.0175381 1.21124 227 188 128
0.145739 0.0218408 1.13065 146 123 86
0.16442 0.0135814 1.14694 171 148 114
0.153826 0.0204958 1.13367 4 0 0
0.100736 -0.00710357 1.19347 155 116 77
-0.13328 -0.0126601 1.23652 188 149 99
0.100152 0.0105956 1.16092 235 193 125
0.118967 -0.00602419 1.18953 112 80 38
0.09621 -0.0100723 1.19963 235 197 137
0.117471 -0.0165822 1.20871 194 157 104
-0.144574 -0.0241538 1.25932 255 227 161
-0.0787974 -0.0553845 1.30188 136 104 65
-0.0169809 -0.0629726 1.30969 205 176 118
-0.172068 -0.146303 1.48832 251 217 152
0.00467603 0.0260328 1.1396 111 95 80
0.0504302 -0.0686779 1.31256 234 203 146
0.117988 -0.000511222 1.1793 126 88 41
0.0488108 -0.0605774 1.29784 211 177 118
0.134537 -0.0654825 1.29824 175 148 100
-0.13471 -0.0651561 1.33233 160 117 62
-0.0455072 -0.0669738 1.32046 245 210 147
-0.156828 -0.09325 1.38867 149 109 49
0.160808 -0.0836522 1.33052 65 45 22
0.153768 -0.0764693 1.31857 181 151 96
0.101156 0.0201314 1.14223 47 31 5
0.153818 -0.0768191 1.31884 183 154 96
0.0864484 0.0108376 1.16155 205 172 131
0.135906 0.00156216 1.17635 200 167 113
0.161712 -0.12195 1.40216 22 14 0
0.0979728 -0.0458672 1.2654 139 103 47
0.000198044 0.00716702 1.17734 175 132 78
-0.0447977 0.00797703 1.18092 186 141 81
-0.0779415 0.00436509 1.19172 245 200 142
0.163855 -0.000482313 1.17431 46 22 0
-0.112598 -0.0100574 1.22561 177 129 75
0.106002 -0.0147169 1.20676 231 189 121
0.0056722 -0.0716407 1.32299 144 112 45
0.114745 -0.00246166 1.18312 230 192 134
0.14752 -0.0852139 1.33496 70 48 17
0.146795 0.00397047 1.16802 97 64 17
0.0899048 -0.0204872 1.21899 127 93 47
0.0945744 -0.0648703 1.30112 85 57 15
0.161824 -0.016624 1.20456 42 16 0
0.131879 -0.0186972 1.21203 184 151 104
-0.0933669 -0.0289199 1.25645 157 114 57
-0.135082 0.0111462 1.19257 244 197 136
0.00384737 -0.0689355 1.31819 243 207 148
0.131448 -0.0486107 1.26716 200 171 117
0.129957 -0.0408337 1.25272 212 179 123
0.0432289 0.0177878 1.15239 173 140 101
0.155484 -0.064402 1.29423 72 41 5
0.111584 0.0110394 1.15854 239 196 126
-0.00167797 -0.0623323 1.30675 216 184 129
-0.089931 -0.074151 1.33886 163 126 70
0.171614 -0.102988 1.36742 176 153 113
-0.149259 -0.0925721 1.38629 162 123 61
0.0737853 -0.0417599 1.25932 214 179 116
0.122129 -0.00362816 1.18463 218 179 124
0.177008 -0.112934 1.38608 127 105 54
0.162961 -0.010974 1.19409 48 24 0
0.0983944 -0.0236452 1.22439 241 204 141
0.0913531 -0.036011 1.24781 131 96 44
0.160055 -0.0548159 1.27663 136 113 83
-0.0358466 0.00429849 1.18671 255 244 172
0.161283 -0.0944576 1.35129 74 51 11
0.0974373 -0.020536 1.21885 219 183 127
0.137871 -0.0687619 1.30412 86 59 19
0.109247 -0.0572742 1.28521 174 138 81
0.120133 -0.0105196 1.19757 112 79 32
0.0527019 -0.0718781 1.31819 157 122 63
0.0960112 -0.0347329 1.24522 163 129 73
0.135258 -0.018803 1.21378 79 54 17
0.163326 -0.0081911 1.18886 59 31 3
