ply
format ascii 1.0
element vertex 104
property float x
property float y
property float z
property uchar red
property uchar green
property uchar blue
end_header
0.990271 -0.478066 7.0335 154 140 94
0.208506 -0.223393 7.24684 247 204 132
-0.460499 0.451734 7.35105 50 40 34
-0.423035 0.397228 7.33864 250 212 158
0.767103 0.374758 7.2136 239 194 129
-0.291418 -0.677241 7.57158 13 8 3
-0.555278 0.492572 7.31098 45 34 28
-0.506513 0.45242 7.31881 253 218 165
-0.462785 0.450613 7.36486 53 39 36
0.640794 0.096719 6.93173 130 95 61
0.157667 -0.290169 7.22801 124 88 57
0.569033 0.420676 7.25352 245 204 139
1.03731 0.399369 7.10769 18 6 2
0.739145 0.27276 7.0889 119 82 50
0.695675 0.272832 7.09304 125 86 57
0.448149 0.253707 7.11653 111 78 43
1.00985 0.407691 7.13569 207 175 139
1.05806 0.376384 7.10608 189 159 115
-0.389112 -0.0522211 7.01844 150 108 62
0.796644 0.117036 6.97624 114 79 30
0.111038 -0.0635024 6.98721 120 84 37
-0.170842 -0.335799 7.27466 117 76 23
0.0470884 0.0232887 6.99483 151 111 61
-0.24013 -0.113065 7.05234 255 229 181
0.861474 0.389744 7.12732 130 106 80
0.868934 -0.0149833 6.7074 234 200 132
0.479243 0.25633 7.10841 255 254 190
0.822888 0.256637 7.05684 241 203 150
0.278318 -0.339639 7.23154 159 127 69
0.357141 -0.0298113 6.93586 177 137 85
0.801218 0.276262 7.08709 99 65 27
0.764136 0.406709 7.17532 20 12 10
0.982908 0.372221 7.10358 120 84 35
0.782532 0.29287 7.09122 233 189 136
0.756281 0.293473 7.09282 243 202 138
1.07686 0.272722 6.90879 159 133 96
0.661508 0.266011 7.07461 243 202 155
0.971061 0.127219 6.77434 139 111 78
0.829316 0.371927 7.14594 200 159 111
1.22797 0.241031 6.93754 167 142 118
-0.316508 -0.0883475 7.02211 255 248 169
0.86133 -0.266559 7.04523 158 135 98
-0.164262 0.0493572 7.06587 21 9 2
1.02044 0.141401 6.70473 233 210 163
0.353553 -0.241778 7.21147 138 98 43
0.393625 -0.238001 7.20301 132 95 43
-0.271388 -0.37065 7.32766 216 177 111
0.343492 -0.00834947 6.94243 255 239 171
0.614657 -0.141638 6.9908 221 186 132
0.584943 -0.0254741 6.87762 191 146 80
0.678836 -0.119621 6.97798 143 108 56
0.0981588 -0.0248656 6.97136 184 139 79
0.886468 -0.0437058 6.70542 108 80 32
0.362633 -0.0696376 6.96266 140 108 55
0.82931 -0.0446732 6.8163 171 146 105
0.888138 -0.140135 6.81548 166 142 103
0.344542 -0.0556805 6.9546 255 237 170
0.609773 -0.0659533 6.85872 128 99 51
0.967211 -0.00199878 6.62802 240 210 147
0.0503729 -0.354401 7.27459 216 180 117
0.893591 -0.0251815 6.67587 225 190 129
0.808174 -0.515241 7.31197 140 116 65
0.331107 -0.357656 7.24614 167 132 78
0.353082 0.0079532 6.94679 166 128 70
0.463632 -0.274408 7.12787 124 90 47
0.892166 0.36295 7.19551 91 65 35
0.592483 0.028181 6.89699 249 211 149
0.787353 0.068529 6.90633 138 107 57
0.191102 -0.289224 7.21864 254 224 162
-0.380962 -0.0858014 7.03684 255 240 173
0.874746 -0.0854739 6.75738 176 150 111
0.389514 -0.301444 7.19741 141 107 52
0.290019 -0.307791 7.21359 157 119 59
0.316399 -0.285966 7.20446 246 206 133
1.23073 0.0941968 6.91744 166 135 92
0.495875 0.212211 7.1183 241 202 149
0.266722 -0.324374 7.22411 255 235 172
0.871721 0.0429932 6.74793 211 183 133
0.931497 -0.0294067 6.64339 140 113 72
1.19833 0.000674359 6.93725 165 128 75
0.445274 0.277755 7.12901 255 225 165
0.614774 0.280419 7.11508 148 110 62
0.839698 -0.389034 7.17368 156 129 84
0.980839 0.077617 6.66181 235 210 157
0.823736 -0.40644 7.202 82 57 18
0.342952 0.0216598 6.95461 255 218 158
0.804237 0.303894 7.09813 137 98 49
0.88503 0.368281 7.14045 85 61 32
1.07805 0.399267 7.10285 7 0 0
0.95966 0.411192 7.13714 188 153 101
0.620406 0.333135 7.14622 142 102 54
0.923746 0.428051 7.12967 10 1 0
0.894964 -0.512416 7.2352 117 104 74
0.982938 0.439362 7.14666 15 4 7
0.864733 -0.523864 7.27293 116 101 75
-0.739085 -0.336823 6.96174 213 182 126
1.09287 -0.359559 7.09337 147 128 92
-0.132372 -0.0760733 7.0107 182 144 100
0.858192 0.247843 7.01462 193 159 115
0.753532 -0.481387 7.26401 155 133 83
1.03616 0.358056 7.09451 129 94 44
0.816376 0.148691 6.96033 221 184 132
0.950729 0.0910184 8.14712 207 177 121
0.805453 0.0665341 6.88719 207 177 121
