ply
format ascii 1.0
element vertex 68
property float x
property float y
property float z
property uchar red
property uchar green
property uchar blue
end_header
0.781794 0.286377 8.18193 222 191 142
1.09068 -0.380272 7.57476 227 206 149
1.02753 -0.42975 7.63468 232 207 144
-0.690016 -0.0902945 8.77277 175 131 70
1.08483 -0.227286 7.70961 147 124 94
0.84342 0.245351 8.13411 239 195 129
0.756821 0.24012 8.15602 236 194 126
1.24075 0.230576 7.99334 38 21 4
0.0230334 0.209573 8.53183 255 225 156
0.897274 0.146485 8.06936 220 179 122
0.872291 0.128216 8.08438 103 71 31
0.798071 0.122396 8.11831 119 79 43
0.70449 0.0961084 8.12428 235 197 137
0.900623 0.090811 8.06853 230 192 137
0.900548 0.0428376 8.04768 214 180 125
0.757777 0.00441994 8.07979 235 200 137
1.19085 0.00620042 7.79806 162 136 98
1.17101 -0.0465147 7.78781 160 137 100
0.900007 -0.0888952 7.99639 213 178 122
0.267944 0.318342 8.51794 154 130 99
-0.965673 -0.432782 8.50633 172 134 74
0.9536 -0.102399 7.85891 88 62 29
1.17958 0.319459 8.09677 6 1 0
0.0507346 -0.303655 8.23785 161 121 57
0.848032 -0.244013 7.94865 207 178 117
1.08294 -0.243071 7.73294 164 141 104
-0.346605 -0.293595 8.42443 255 224 162
0.361291 -0.290285 8.12685 161 125 67
-0.0557969 -0.312579 8.2642 255 245 176
0.262139 -0.281125 8.15736 250 215 147
0.91178 -0.241061 7.91388 94 65 21
0.706576 -0.218942 7.98652 200 171 128
1.02922 -0.210899 7.87629 75 47 6
0.751545 -0.204939 8.02445 187 148 90
-0.869699 -0.506428 8.40062 162 121 67
-1.00634 -0.66887 8.28167 244 214 151
0.735398 0.352376 8.32498 168 147 122
0.680578 -0.129497 8.06989 133 98 47
1.08682 -0.123196 7.88374 119 95 64
0.645325 -0.0723812 8.10255 148 113 56
-0.633524 0.212166 9.02824 69 37 7
0.988245 0.196783 7.94169 198 166 111
1.1225 -0.0422053 7.89701 125 104 79
-0.0430607 0.188071 8.55747 169 127 64
-0.352614 0.174199 8.74669 177 138 83
0.873279 0.165475 8.09698 119 84 34
0.801464 0.04751 8.10185 229 191 127
0.452273 0.303996 8.29872 246 210 150
1.18091 0.0947044 7.93308 116 97 73
-0.666576 0.0938779 8.90102 140 97 52
0.683652 0.119141 8.14764 128 89 39
0.64907 0.136645 8.19153 148 109 60
0.873832 0.0990524 8.06769 118 84 39
0.941153 0.0520993 8.00002 167 136 96
1.08748 0.203785 8.03528 101 65 18
0.898513 -0.132827 7.97247 199 171 114
-1.13855 -0.0855381 9.05387 74 47 24
0.0358396 -0.259759 8.25751 246 210 150
0.698365 0.345261 8.22607 46 25 3
0.648571 -0.248265 8.01172 177 149 106
-0.0170531 -0.235945 8.32251 66 32 0
1.00137 -0.468539 7.66295 227 200 137
-0.870159 -0.507105 8.40353 162 121 67
0.99433 -0.400654 7.69452 192 162 109
1.04821 -0.374551 7.64539 178 155 116
-0.601464 -0.353253 8.53837 168 127 70
0.6785 -0.0629985 8.09259 165 131 74
0.824659 -0.199257 8.00624 184 148 91
