ply
format ascii 1.0
element vertex 55
property float x
property float y
property float z
property uchar red
property uchar green
property uchar blue
end_header
1.13472 0.0287238 8.7891 192 155 97
-0.194253 -0.728034 10.3227 234 196 124
0.5517 0.0270735 8.86384 248 214 146
-0.673194 0.527277 8.56071 250 214 158
0.798695 -0.039235 8.8118 207 177 128
1.21358 -0.0622576 8.50633 34 22 3
-0.86925 0.496614 7.99594 251 207 144
-0.581711 0.301107 8.71517 194 148 96
-0.581711 0.301107 8.71517 194 148 96
0.523206 0.25892 8.96875 119 84 50
0.523206 0.25892 8.96875 119 84 50
1.5315 -0.0937818 8.96093 166 129 74
1.05135 -0.109033 8.6281 96 74 39
1.21802 -0.113501 8.41303 235 210 154
0.387056 0.387764 9.03199 251 216 168
1.31403 0.440858 8.96508 186 157 118
0.799463 0.268587 8.93197 236 197 141
1.01303 0.258037 8.93079 236 200 144
1.08124 0.247615 8.85885 86 57 22
1.08124 0.247615 8.85885 86 57 22
1.01406 0.208722 8.91899 217 181 126
1.23697 0.0284021 8.61881 166 138 100
1.23697 0.0284021 8.61881 166 138 100
1.2042 0.011146 8.68385 50 30 2
1.2042 0.011146 8.68385 50 30 2
1.21096 -0.0165265 8.59754 175 150 113
1.21096 -0.0165265 8.59754 175 150 113
1.08464 -0.218246 8.53935 242 212 148
0.415836 -0.121706 8.85673 171 132 75
0.985193 0.331855 8.96266 131 92 44
1.19469 -0.115058 8.46938 84 65 26
-0.545842 0.337026 8.81469 142 100 62
-0.323251 -0.0943043 8.81052 255 232 175
1.05897 0.231959 8.8793 189 156 115
0.751287 0.0766639 8.902 242 202 140
-0.271961 -0.0601987 8.88172 220 194 158
0.987777 0.0481117 8.87934 94 61 13
0.0190618 -0.0974416 8.84533 127 91 46
1.11666 -0.194029 8.50995 102 74 25
1.19673 0.445248 8.97843 227 185 131
0.401156 0.455061 9.17222 162 145 121
-0.227997 0.359066 8.96117 255 243 172
0.38763 0.342467 9.02175 194 144 86
0.0118232 0.344138 9.00477 188 141 79
0.0570316 0.336993 9.01634 203 157 90
-0.672466 0.319635 8.54501 189 149 101
0.739237 0.299971 8.97734 143 104 58
-0.672466 0.319635 8.54501 189 149 101
1.0511 0.0915474 8.79016 176 147 104
1.29024 0.240835 8.87501 72 42 10
1.21606 0.481992 8.96992 114 82 36
0.854532 0.174721 8.9091 239 203 136
1.05429 0.455517 8.96638 123 100 75
0.310361 -0.108179 8.85563 255 226 157
1.05003 0.0556476 8.78523 176 148 106
