ply
format ascii 1.0
element vertex 77
property float x
property float y
property float z
property uchar red
property uchar green
property uchar blue
end_header
0.229523 0.082889 3.63308 245 209 148
-0.142522 -0.192521 3.78781 88 54 9
-0.304565 0.00417686 4.0029 56 33 18
-0.303257 -0.0184269 3.98583 99 61 28
-0.116297 -0.169745 3.79278 175 149 114
0.411368 -0.0478771 3.54932 215 183 128
0.375523 -0.0502484 3.57287 43 18 0
0.341016 -0.0531087 3.58258 52 25 0
0.393297 -0.208304 3.55803 221 189 121
-0.440005 -0.155854 3.94698 169 126 66
0.538649 -0.106284 3.44812 160 142 108
0.39542 -0.170255 3.55859 208 178 121
-0.00312974 -0.188039 3.71399 109 77 35
-0.267325 -0.200121 3.87389 70 42 16
0.503812 -0.190849 3.46314 162 139 104
0.253968 -0.219312 3.60426 31 10 0
0.432869 -0.230114 3.52917 172 150 110
0.218332 -0.132468 3.6141 222 193 130
0.12642 0.0515881 3.69393 209 171 122
0.351163 0.055471 3.57462 229 199 152
0.362444 -0.0130674 3.57241 121 82 42
0.229637 -0.207168 3.60776 255 240 166
0.00360839 -0.155133 3.73393 222 190 136
-0.0235258 -0.157067 3.74858 212 173 118
-0.0638969 -0.162236 3.7658 217 192 149
-0.147337 -0.173492 3.80986 215 185 120
0.438828 0.0555084 3.52247 214 190 144
0.294242 0.0334603 3.59591 208 175 128
0.272802 0.0238988 3.61496 110 71 27
-0.28294 -0.285138 3.82243 247 221 158
0.309668 -0.0165238 3.5803 131 93 42
-0.316166 -0.0557951 3.94935 142 104 59
0.336206 0.0464693 3.57468 44 21 0
0.199301 0.0561245 3.62425 237 206 146
0.133551 -0.144577 3.68185 193 161 109
-0.109552 -0.1626 3.79693 55 27 1
-0.158134 -0.168539 3.82391 67 38 2
-0.137145 -0.180803 3.79826 83 47 2
0.536823 -0.256185 3.40511 183 158 107
0.297904 -0.165745 3.59399 85 56 12
0.303025 -0.172203 3.58946 184 157 117
0.487463 0.0432335 3.51385 92 61 26
0.340602 0.0325098 3.56781 235 196 131
-0.390854 0.0141868 4.0289 247 213 157
0.240125 -0.109084 3.62717 219 184 124
-0.490579 -0.321112 3.84447 47 34 22
0.468964 0.0323414 3.51735 216 179 121
0.296719 -0.0949596 3.60328 129 95 47
0.00318295 -0.10579 3.99752 215 176 123
-0.134725 -0.1978 3.78001 253 219 154
0.395556 -0.247435 3.53094 4 1 1
0.39635 0.00414588 3.56064 121 86 38
0.29801 -0.0529632 3.60602 107 76 32
-0.410123 -0.103949 3.99236 161 118 62
0.365814 -0.0425398 3.58227 230 191 131
-0.417963 -0.247546 3.86247 149 105 53
0.415643 -0.102334 3.55671 210 178 123
-0.00588669 0.00943886 3.75672 153 108 62
0.0180745 -0.162778 3.72252 72 47 10
-0.321121 -0.131558 3.91937 171 128 69
-0.0450199 -0.180571 3.73777 166 138 86
0.146729 0.0531445 3.68433 164 135 101
0.480335 0.043757 3.51585 108 73 36
0.283399 0.0311443 3.60597 224 185 127
0.494016 0.0195623 3.51808 92 61 15
-0.0156116 0.0719198 3.81971 112 96 72
0.345903 -0.145064 3.58563 170 136 81
0.38759 0.0649186 3.57141 74 51 28
0.311381 -0.0921387 3.59247 143 110 57
0.408548 -0.00485531 3.54901 217 180 124
0.516086 -0.0906106 3.49849 120 100 78
0.486416 -0.14342 3.52613 66 37 2
-0.0168489 -0.177214 3.72407 195 161 104
0.0157655 -0.15026 3.73667 84 55 7
-0.459455 -0.0833851 4.02596 180 137 85
0.539902 -0.031737 3.48988 121 99 75
0.405992 -0.179682 3.55786 99 70 28
