ply
format ascii 1.0
element vertex 89
property float x
property float y
property float z
property uchar red
property uchar green
property uchar blue
end_header
-0.860519 0.281965 8.46381 254 208 152
0.862398 0.0623229 8.02127 104 72 21
0.299068 0.0946548 8.1635 13 2 0
1.08002 0.027301 7.78879 174 147 115
0.129056 -0.10079 8.0928 255 224 162
-0.060473 -0.0611569 8.05022 140 104 57
-0.545957 -0.828433 8.9561 188 170 131
0.119646 -0.395982 8.39504 254 221 155
1.1161 -0.649761 8.2571 152 139 93
0.240494 0.221667 8.30739 255 245 172
0.734892 0.273053 8.15168 125 89 55
0.866192 0.277892 8.14358 101 66 28
0.899056 0.406684 8.20604 197 160 108
1.18323 0.408854 8.16437 187 158 117
0.661997 0.492144 8.3192 229 196 156
-0.759283 -0.982885 8.91033 175 163 124
0.45055 0.048705 8.04316 241 207 144
1.08173 -0.00366646 7.69442 42 25 4
0.430162 0.250267 8.18954 110 76 44
0.789613 0.273157 8.1517 118 82 49
1.24001 0.405162 8.15492 177 147 104
0.871953 0.433697 8.2178 16 6 2
0.760919 -0.733369 8.62438 149 132 89
1.12386 0.452359 8.20146 205 175 135
-0.661175 -0.901875 8.93302 178 157 106
0.373515 0.225429 8.27896 254 210 145
0.668929 0.0261352 7.9534 129 94 59
0.824776 0.279079 8.15515 134 94 50
1.31664 -0.163357 8.05193 166 134 80
0.475974 0.223422 8.18619 178 133 75
1.07039 0.0462093 7.84526 58 35 6
-0.491343 -0.67706 8.85358 143 101 40
0.843061 0.299125 8.15635 242 198 138
0.869338 0.313923 8.15598 130 91 42
0.396205 -0.757276 8.80376 184 153 88
0.213636 -0.436335 8.40795 254 230 168
0.907388 -0.164208 7.8693 172 148 111
-0.70785 -0.96926 8.94754 10 6 1
0.822944 0.456028 8.2713 16 7 4
0.94591 -0.389051 8.16189 164 139 101
0.319981 -0.336851 8.38052 133 94 39
0.369973 -0.333043 8.36495 126 89 38
0.242999 -0.417724 8.391 159 119 58
1.07196 0.0382582 7.7263 138 114 81
1.41537 0.12261 8.03 160 132 95
1.08816 -0.0426244 7.6183 233 210 154
0.983946 -0.165954 7.65877 229 194 131
1.3587 -0.0795565 7.9925 164 130 76
0.641555 -0.186292 7.9794 128 102 54
1.00132 0.0527393 7.93212 203 167 113
0.952215 -0.148007 7.68922 244 211 146
-1.01812 -0.354613 7.58843 254 226 169
1.01715 -0.119608 7.66048 241 215 156
0.780202 0.415482 8.23707 231 198 146
0.316897 -0.0836141 7.99802 168 132 72
0.612351 -0.0643775 7.93426 249 211 149
0.635976 0.285473 8.18418 146 108 59
0.679617 0.0457054 7.99442 110 75 28
0.657902 -0.00820813 7.96316 216 183 137
0.468701 0.252365 8.17736 255 252 191
0.893661 0.248727 8.11389 239 202 147
0.693259 0.260885 8.13591 237 200 148
0.859722 0.0360686 7.98945 117 82 34
0.489337 0.200588 8.19313 253 212 154
0.304256 -0.0656237 8.00928 251 216 152
0.894996 0.300144 8.13641 225 184 129
1.19277 -0.653554 8.2383 3 0 0
0.936905 0.230353 8.05944 192 158 118
0.92751 0.109564 7.96794 177 146 107
0.893473 0.204606 8.09364 216 180 125
1.06285 -0.0476066 7.65104 99 81 40
0.42605 0.281365 8.18827 255 220 162
0.988037 0.165922 7.90497 216 184 132
0.92348 -0.515005 8.37311 158 132 86
0.886395 0.0983338 8.00495 219 183 128
0.303114 0.321128 8.27964 197 147 91
-0.292225 0.337352 8.3758 255 245 176
0.81082 0.299608 8.15587 241 199 135
0.305662 -0.104418 7.99339 255 240 171
1.15561 0.383739 8.15099 126 91 44
1.0764 -0.145727 7.60972 239 210 146
1.0731 0.413044 8.18593 218 179 128
0.939835 0.426032 8.18999 124 101 73
1.09094 0.493176 8.21552 6 1 0
0.604964 -0.133349 7.91632 184 138 74
-0.232667 -0.382505 8.42568 255 210 131
0.322692 -0.131513 7.99987 182 144 88
0.609824 -0.0885037 7.90813 177 139 79
1.09484 0.446866 8.19747 115 83 36
