ply
format ascii 1.0
element vertex 80
property float x
property float y
property float z
property uchar red
property uchar green
property uchar blue
end_header
1.62373 -0.497887 18.0949 40 21 0
1.22083 -0.436031 18.1961 254 228 174
1.25358 -0.376114 18.1153 36 21 1
1.87899 -0.542521 18.1943 238 215 170
1.77901 -0.59143 18.3076 45 26 2
2.50458 -1.52678 20.028 175 158 120
-1.61973 -2.0045 21.5223 248 222 163
2.65513 -1.74651 19.9546 188 165 109
-1.1497 -1.50817 21.1892 238 214 160
1.12047 -0.458015 18.2422 23 11 2
-0.313699 -1.02646 20.3971 49 18 0
1.14906 -0.648542 18.543 246 215 157
-1.61765 -1.99987 21.4928 248 222 163
-1.20578 -1.64526 21.2448 31 24 17
3.01892 -1.86134 19.6122 196 169 114
2.31423 -0.746048 18.1141 22 12 3
-0.465238 -1.13494 20.5054 113 84 47
2.32139 -1.14262 19.459 206 180 131
1.27255 -1.26932 20.1466 205 176 120
0.659005 -0.314983 18.5436 121 101 71
-0.46779 -1.17299 20.548 88 60 19
2.38003 -1.38748 19.916 204 176 121
1.83322 -0.504453 18.1925 36 23 6
-0.752737 1.01775 22.3708 33 14 0
1.15712 -1.20521 20.2184 194 168 120
-2.06208 -1.23465 19.1309 255 230 169
2.05391 -0.585186 18.2298 57 36 8
-2.0931 -1.03676 18.7029 235 205 150
0.00947464 -1.02787 20.3428 30 15 0
2.85747 -0.753308 18.2309 44 23 2
0.200832 -1.0825 20.2787 67 35 1
2.23134 -0.895574 18.8574 232 202 151
2.87433 -1.43024 19.2259 146 125 89
2.96138 -1.16884 18.6146 154 135 100
1.85401 -1.01343 19.3118 227 196 140
1.85854 -0.387874 18.2719 44 30 14
-2.04098 -1.08495 18.8068 142 112 70
0.252928 -1.04126 20.2317 197 169 121
-0.55276 -1.03513 20.4696 62 33 2
-0.74216 -1.63868 19.9825 1 0 0
-0.662366 0.999302 22.3399 197 165 121
0.693792 -0.364897 18.5681 26 8 0
0.503899 -1.04279 20.2099 92 75 49
2.36902 -0.525419 17.9691 46 36 21
1.10945 -0.324435 18.232 113 93 61
-0.663543 1.16894 22.369 65 41 13
-0.0932222 1.13969 22.2412 54 31 5
0.426984 -0.256411 18.6297 49 32 11
2.60968 -0.821338 18.5565 170 139 94
0.306638 -1.01157 20.2056 81 49 3
1.41464 -0.795295 19.1127 247 216 158
-0.229604 1.29026 22.4667 164 134 92
1.98455 -1.68076 19.9448 4 0 0
2.74913 -1.42528 19.5081 56 39 18
-0.434514 -1.06775 20.4466 201 170 122
0.846743 -0.460353 18.5642 139 119 89
1.50408 -0.841443 19.1349 245 210 145
-1.69167 1.5282 22.4013 133 101 63
2.68332 -0.621459 18.0304 95 72 36
-2.15878 -1.46496 19.5652 64 43 27
0.503997 -0.943529 20.2044 146 121 82
2.8455 -0.651357 18.0354 178 159 113
2.36943 -0.408058 18.1521 41 28 10
1.68935 -0.435978 18.1632 164 136 93
2.92263 -0.756857 18.1207 154 134 95
-0.81325 1.42963 22.6213 4 2 0
2.17099 0.411361 20.4249 140 112 72
-0.390789 0.170779 21.3161 73 45 9
2.71904 -1.31129 19.5139 138 114 83
2.36759 -0.929508 18.1508 201 180 130
2.80989 -0.878528 18.561 44 21 2
-1.98409 -0.856725 18.6298 250 212 154
-0.126155 0.972973 22.1929 180 146 103
2.82974 -0.986073 18.6776 128 107 80
2.75505 -0.690323 18.088 192 163 115
-0.0617466 0.974999 22.1653 188 152 105
1.41316 -0.986901 19.5165 218 188 129
2.82889 -1.95979 20.1307 23 12 0
-0.37737 0.0666971 21.1837 58 33 3
2.53368 -1.47774 19.9204 69 50 14
