ply
format ascii 1.0
element vertex 55
property float x
property float y
property float z
property uchar red
property uchar green
property uchar blue
end_header
0.72698 -0.19491 7.37027 228 192 131
0.747673 -0.211343 7.35655 38 11 0
0.747673 -0.211343 7.35655 38 11 0
0.329325 -0.422525 7.58327 91 63 18
0.140692 -0.323541 7.75287 42 25 6
0.69633 -0.187317 7.36143 238 198 134
0.81272 -0.330661 7.36154 95 64 17
0.809165 -0.58513 7.4443 3 0 0
-0.283647 -0.406943 7.89082 216 186 122
-0.00368508 -0.395401 7.73712 62 30 0
1.11665 -0.0811374 7.15394 40 25 8
0.536883 -0.487201 7.53051 243 214 150
-0.81402 -0.583658 7.97803 158 115 56
-0.748979 -0.724329 7.88294 137 99 43
0.179498 -0.441499 7.65995 255 254 203
0.214169 0.0423624 7.60345 134 109 79
0.772455 -0.187195 7.35689 208 172 120
-0.105983 0.122316 9.03249 189 156 110
0.817924 -0.213472 7.30606 221 188 136
0.67944 -0.216574 7.37914 51 21 1
0.186613 -0.482833 7.66992 21 2 0
0.629078 -0.48576 7.46837 210 182 121
-0.632662 -0.718858 7.91808 238 209 142
-0.545316 -0.618711 7.96013 246 218 158
0.602103 -0.416924 7.46178 86 57 17
0.836104 -0.494434 7.40509 204 175 113
-0.184462 -0.39532 7.83664 203 174 127
-0.117762 -0.389209 7.79901 217 193 151
0.0455389 -0.394078 7.71249 71 45 10
1.14282 -0.282285 7.05232 15 8 0
0.571769 -0.079194 7.36298 60 33 0
0.647321 -0.384416 7.43321 34 17 2
1.17651 -0.406219 7.00114 180 159 120
0.661258 -0.0442603 7.30195 46 25 0
1.0125 -0.498701 7.21582 158 138 105
0.996471 -0.0742681 7.18145 206 171 121
0.996471 -0.0742681 7.18145 206 171 121
-0.592906 -0.145377 8.12479 235 194 149
0.612496 -0.302484 7.42194 227 198 147
0.483025 -0.309241 7.49887 216 184 123
1.17458 -0.360674 7.00582 38 21 0
0.119041 -0.345053 7.73751 123 99 65
0.119041 -0.345053 7.73751 123 99 65
-0.25643 -0.457778 7.83981 237 202 148
-0.196882 -0.341858 7.93295 52 22 1
-0.0323304 0.0597275 7.79261 45 27 8
0.76265 -0.00562517 7.29262 63 44 24
0.633703 -0.175624 7.35051 250 214 155
1.02707 -0.0424704 7.16941 85 63 28
-0.531726 -0.510363 8.00963 162 122 68
-0.531726 -0.510363 8.00963 162 122 68
-0.984346 0.160429 9.23849 144 120 84
-0.32726 0.179519 9.33004 79 53 17
0.959946 -0.188775 7.19778 205 171 124
-0.32726 0.179519 9.33004 79 53 17
