ply
format ascii 1.0
element vertex 147
property float x
property float y
property float z
property uchar red
property uchar green
property uchar blue
end_header
0.762892 -0.281281 9.00581 38 17 2
0.71754 -0.424349 9.06535 115 81 24
0.186848 -0.45933 9.22101 16 3 0
-0.951495 -0.485517 8.40102 250 215 151
-0.301114 -0.332342 8.99507 112 79 33
0.487453 0.305462 8.74076 18 8 0
0.469332 0.261232 8.73156 244 208 149
-0.552659 0.272582 8.42408 38 22 10
-0.240468 -0.284889 9.00826 196 167 122
-0.330005 -0.273117 8.98952 73 44 12
0.785616 0.219393 8.77409 51 27 7
0.595475 -0.0319232 8.95289 255 219 154
-0.885548 -0.185214 8.04769 140 103 54
-0.550837 -0.248678 8.90646 69 40 7
0.952762 -0.312803 9.01313 39 20 0
1.09638 -0.592839 8.94691 203 177 118
0.877532 0.172861 8.75727 232 189 120
1.15776 -0.594827 8.86773 232 207 147
0.296983 0.274354 8.81259 27 12 1
-0.555655 0.213484 8.41494 66 35 4
0.0351353 0.182153 8.76805 255 228 163
0.72972 0.0144129 8.86757 99 64 17
0.849864 0.0647779 8.85517 115 78 37
0.963827 0.0277558 8.86261 228 193 140
0.967875 -0.0251847 8.87855 217 182 128
-0.531428 0.133049 8.54361 143 97 33
0.800039 -0.03687 8.8969 53 25 0
0.815989 -0.0635137 8.89397 235 203 145
1.20365 -0.624346 8.89923 160 138 78
1.29649 -0.0902372 8.7529 164 138 100
-0.53185 0.151913 8.52071 253 211 158
-0.191058 -0.27784 9.01784 208 176 121
-0.846372 0.131393 7.55019 255 238 168
1.22161 -0.316658 8.8177 158 132 96
0.0072496 -0.351611 9.04999 103 71 29
-0.332859 -0.34089 8.98862 254 223 166
0.277938 0.293627 8.80522 191 169 133
0.330724 0.296142 8.81758 155 134 107
1.19961 -0.371677 8.83289 164 139 103
-0.209455 -0.361034 9.01553 126 94 55
-0.871536 0.00322564 7.74816 255 228 163
0.139829 -0.428127 9.16778 255 227 150
0.78652 -0.480579 9.12883 222 188 116
1.03377 -0.502489 9.01836 182 161 116
1.13276 -0.58374 8.91863 76 53 14
0.296674 0.274967 8.80446 27 12 1
0.817913 0.239441 8.76493 232 201 147
0.309123 0.239866 8.77616 216 174 122
0.693792 0.208716 8.79291 76 44 2
0.331301 0.195943 8.79082 240 205 155
0.261482 0.190762 8.78787 255 229 179
0.68131 0.164423 8.81159 73 40 6
-0.508584 0.163506 8.51835 152 109 53
0.356296 0.0907764 8.94405 255 236 163
0.945002 -0.00182863 8.87482 97 61 24
1.23091 -0.641091 8.8761 233 204 140
0.0801583 -0.269343 9.0574 202 177 133
-0.0341418 -0.272673 9.0454 228 190 128
-0.286814 -0.30633 9.00245 81 49 2
0.757802 -0.315248 9.00378 171 150 114
0.780212 -0.315993 8.99427 206 177 135
-0.191782 -0.277691 9.01271 208 176 121
0.08059 -0.290741 9.06657 59 34 0
0.00141945 -0.295674 9.061 66 32 0
-0.891766 -0.116141 7.90636 242 205 137
-0.392024 -0.379313 9.00582 115 77 28
0.185548 -0.266399 9.06311 201 174 129
0.320627 -0.267998 9.06757 197 169 113
0.953483 -0.508944 9.04345 8 2 0
1.13357 -0.636232 8.9336 220 196 134
0.726711 0.0628418 8.84305 124 88 39
0.603102 -0.037732 8.97578 237 199 130
0.413908 0.088821 8.93565 251 207 142
-0.680801 0.0753557 8.24673 163 123 75
0.860344 -0.0152793 8.90804 227 188 128
1.20461 0.288578 8.95637 146 123 86
1.3171 0.221269 8.80364 171 148 114
1.25723 0.276191 8.88153 4 0 0
0.789032 0.0579956 8.85249 155 116 77
-0.839342 0.0407336 7.76877 188 149 99
0.794433 0.188864 8.76206 235 193 125
0.929098 0.0682081 8.83156 112 80 38
0.750927 0.0364877 8.84964 235 197 137
0.912385 -0.00771116 8.90166 194 157 104
-0.88705 -0.0239105 7.72529 255 227 161
-0.521871 -0.270276 8.91101 136 104 65
-0.0874319 -0.323638 9.02694 205 176 118
-0.980133 -0.734106 8.71547 251 217 152
0.0479821 0.302937 8.80778 111 95 80
0.391411 -0.358249 9.07869 234 203 146
0.927238 0.108244 8.81986 126 88 41
0.381364 -0.30791 9.0553 211 177 118
0.988467 -0.328396 8.98718 175 148 100
-0.836929 -0.29572 8.39158 160 117 62
-0.284481 -0.346998 9.00328 245 210 147
-0.930149 -0.443413 8.37624 149 109 49
1.14247 -0.43018 8.92921 65 45 22
1.09802 -0.387228 8.89148 181 151 96
0.815138 0.262858 8.78166 47 31 5
1.10068 -0.390421 8.91165 183 154 96
0.689518 0.189397 8.79112 205 172 131
1.04668 0.124199 8.64497 200 167 113
1.10141 -0.640745 8.96949 22 14 0
0.743187 -0.208643 8.98508 139 103 47
0.0171713 0.15549 8.7683 175 132 78
-0.321997 0.160857 8.6427 186 141 81
-0.554063 0.13722 8.48214 245 200 142
1.28258 0.114038 8.79077 46 22 0
-0.751255 0.0455111 8.17333 177 129 75
0.824357 0.00462144 8.88105 231 189 121
0.0744496 -0.37891 9.0892 144 112 45
0.901304 0.0936862 8.83567 230 192 134
1.04979 -0.441422 8.94577 70 48 17
1.15486 0.144682 8.78147 97 64 17
0.699592 -0.0378842 8.92017 127 93 47
0.705966 -0.329674 9.02784 85 57 15
1.24473 -0.00240925 8.83975 42 16 0
1.0133 -0.0205599 8.84851 184 151 104
-0.629686 -0.0894896 8.57773 157 114 57
-0.842231 0.198571 7.36871 244 197 136
0.061053 -0.361855 9.07593 243 207 148
0.983502 -0.222325 8.95586 200 171 117
0.981066 -0.171763 8.94413 212 179 123
0.353246 0.239398 8.79724 173 140 101
1.13706 -0.318853 8.95798 72 41 5
0.887668 0.193514 8.78549 239 196 126
0.0205132 -0.320208 9.0418 216 184 129
-0.578945 -0.383451 8.92712 163 126 70
1.17714 -0.531394 8.85287 176 153 113
-0.893157 -0.447383 8.45029 162 123 61
0.572171 -0.185755 9.04336 214 179 116
0.956547 0.0858969 8.82947 218 179 124
1.19487 -0.581487 8.8282 127 105 54
1.25969 0.0378125 8.81422 48 24 0
0.759775 -0.0589865 8.90688 241 204 141
0.700539 -0.143947 8.95972 131 96 44
1.17552 -0.256606 8.89401 136 113 83
-0.254273 0.133341 8.70724 255 244 172
1.128 -0.489937 8.91336 74 51 11
0.753813 -0.0373089 8.88869 219 183 127
1.00823 -0.348102 8.98704 86 59 19
0.817626 -0.28104 9.01347 174 138 81
0.935213 0.0359523 8.85612 112 79 32
0.407084 -0.378111 9.09127 157 122 63
0.734721 -0.134776 8.94155 163 129 73
1.02474 -0.019916 8.7416 79 54 17
1.26667 0.0577584 8.80803 59 31 3
