ply
format ascii 1.0
element vertex 104
property float x
property float y
property float z
property uchar red
property uchar green
property uchar blue
end_header
0.898018 0.245307 7.67209 172 144 102
0.574592 0.512463 7.83093 169 142 95
-0.372365 0.525302 7.80511 165 135 96
1.231 -0.476948 7.11868 163 138 82
0.645566 0.469865 7.77551 5 3 2
0.744656 0.392845 7.73074 148 116 75
0.428639 -0.289398 7.13527 249 220 164
0.553388 0.140002 7.61933 149 122 76
-0.314413 0.551487 7.86839 9 4 6
-0.703727 0.434263 7.48266 165 135 95
0.560508 0.381927 7.73519 163 133 89
0.917314 -0.122883 7.05513 52 39 19
0.41696 -0.224643 7.03152 25 12 0
0.708489 -0.491687 7.49729 194 167 114
0.573881 -0.51042 7.57477 20 10 6
-0.505879 -0.621428 7.8103 231 206 148
0.99329 -0.650077 7.55651 199 178 126
-0.321768 0.350581 7.87967 212 174 126
1.00632 0.173238 7.58943 163 140 110
1.08798 -0.326203 7.05124 47 28 8
-0.00788723 -0.382527 7.55357 35 13 0
0.84024 -0.446831 7.43856 45 24 2
0.883463 -0.515716 7.49997 201 174 123
-0.426868 -0.539138 7.76445 235 214 167
-0.589838 -0.711526 7.85484 243 221 168
-0.614525 -0.754997 7.91356 59 40 23
-0.291182 0.402804 7.82109 32 14 0
-0.339488 0.311294 7.90274 14 10 4
1.24353 0.0679664 7.61278 168 142 114
-0.382671 0.0271858 7.68 74 45 14
0.455029 -0.216849 7.0168 253 232 186
-0.760962 -0.381249 7.06702 250 214 160
-0.181178 -0.420001 7.59806 121 92 52
1.21582 -0.601517 7.18384 168 153 119
-0.445184 0.600129 7.79171 160 135 103
-0.261926 0.456112 7.8251 65 41 9
-0.215084 -0.384657 7.58024 64 33 0
-0.127122 -0.382573 7.56934 57 27 0
0.767673 0.417853 7.75986 156 137 112
-0.345741 0.377861 7.84903 77 48 17
-0.370044 0.269117 7.80112 184 167 143
-0.433796 0.234088 7.54318 203 171 125
0.55626 0.164152 7.63001 158 136 108
-0.385095 -0.0319698 7.71581 65 35 6
0.469056 -0.196051 7.0008 36 21 1
-0.488146 -0.22439 7.20392 57 30 1
0.692696 -0.238922 7.02853 33 21 3
0.10856 -0.406029 7.55013 80 51 15
0.710349 -0.253378 7.03324 231 212 168
0.93036 -0.564644 7.54909 174 155 120
0.498817 0.13097 7.73139 150 132 102
0.426245 0.0396927 7.62699 169 142 101
-0.247169 0.359356 7.87419 173 133 83
0.281093 -0.163643 7.08648 121 102 67
-0.101839 0.329771 7.91051 16 2 0
-0.170509 -0.396526 7.57557 197 170 122
-0.0611053 0.448098 7.82926 51 31 4
-0.145373 -0.477838 7.65866 21 2 0
1.06475 -0.364599 7.14617 47 24 4
0.413485 0.0231221 7.62715 60 35 7
0.432865 0.0188825 7.62387 54 31 5
1.05515 -0.308077 7.03557 192 163 116
0.635491 -0.214046 7.00388 174 145 104
0.10259 -0.379762 7.53914 75 43 1
0.121948 0.477281 7.87368 138 109 67
0.898214 -0.198729 7.00881 32 17 2
0.00173643 0.368438 7.87816 115 86 50
-0.412487 0.1658 7.59726 185 156 120
-0.00142239 -0.143253 7.13477 126 105 78
0.419199 0.00456045 7.62967 147 121 84
-0.487338 -0.0446531 7.16527 82 58 31
0.357972 -0.00510971 7.6396 169 139 86
0.255811 0.480769 7.8921 156 128 87
0.706797 -0.137571 7.07178 57 44 30
0.855073 -0.381489 7.29907 226 195 143
0.46337 -0.470015 7.51823 192 167 111
0.504875 0.113924 7.6557 70 46 13
0.309216 -0.217801 7.11027 131 115 86
1.22745 -0.0859527 7.48279 177 148 99
1.16122 0.117113 7.56731 3 0 0
-0.362832 0.345104 7.87661 209 172 128
-0.33084 0.395909 7.82658 171 142 109
0.6011 0.397617 7.75269 72 47 20
0.640538 0.408915 7.7627 159 129 88
0.0223998 -0.00997173 7.68006 170 135 83
-0.750655 0.138937 7.14019 30 17 7
-0.156942 0.0415245 7.67223 63 36 4
0.252213 -0.377288 7.51046 147 113 55
0.404282 0.0916512 7.73526 129 96 49
0.411201 -0.174071 7.02948 115 96 59
0.440785 0.0550053 7.62379 64 38 9
0.491175 0.32432 7.83246 141 111 73
-0.72009 -0.311392 7.06602 101 73 32
-0.118675 0.133674 7.75388 1 0 0
-0.729193 0.0728225 7.1718 140 116 81
-0.544756 0.0793124 7.26944 68 43 19
-0.168085 -0.137543 7.15793 123 103 74
-0.322308 0.0443962 7.68004 78 45 11
-0.364788 0.576795 7.85873 126 107 87
0.398482 0.00644765 7.63776 147 119 81
0.86246 -0.15369 7.0624 63 42 14
0.446432 -0.163163 7.04862 36 19 0
-0.295679 0.0508343 7.6765 182 150 106
0.18115 0.370962 7.83768 66 36 8
