ply
format ascii 1.0
element vertex 132
property float x
property float y
property float z
property uchar red
property uchar green
property uchar blue
end_header
-0.225568 0.246742 7.02701 194 162 116
-0.198848 -0.392583 6.65354 234 208 159
-0.184498 -0.383161 6.65111 82 53 12
-0.0893421 0.327686 7.07384 165 137 98
0.840469 -0.593884 6.52275 207 182 131
0.00424595 -0.338574 6.61209 201 165 109
0.927568 -0.455102 6.3905 153 132 93
0.717881 -0.456455 6.54222 208 184 125
1.04371 -0.422842 6.22909 36 20 1
0.728582 -0.530521 6.54561 6 2 0
0.776719 0.153177 6.84384 171 143 104
-0.533687 -0.266287 6.44005 156 124 73
0.641328 -0.188482 6.28224 227 193 129
0.424103 -0.0698361 6.21908 254 226 176
0.739487 -0.360242 6.43888 197 169 119
-0.461383 -0.213178 6.45396 151 115 68
0.969648 -0.350604 6.27494 154 135 99
-0.483673 -0.114991 6.30656 250 220 167
0.599672 -0.108775 6.23412 31 16 1
0.762958 -0.191313 6.20615 20 12 4
0.673779 -0.138475 6.23609 56 33 8
0.260425 -0.0997157 6.30947 153 126 97
1.11772 -0.254764 6.32083 161 133 84
0.588755 -0.314084 6.43334 232 201 143
1.06549 -0.344382 6.22883 160 135 82
-0.71748 -0.345473 6.32596 255 233 168
-0.344398 -0.460831 6.70418 11 6 3
-0.443662 -0.147989 6.43754 98 61 20
0.892744 -0.148537 6.19453 92 69 33
0.485703 -0.466239 6.60147 11 8 2
-0.415553 -0.152642 6.44725 119 78 39
-0.716591 -0.620623 6.64366 57 40 25
0.133943 -0.306576 6.60102 130 105 68
-0.125575 -0.287631 6.6462 54 27 1
0.720116 -0.260623 6.33239 224 196 145
0.562084 -0.231507 6.34185 247 215 160
0.79913 -0.15403 6.18021 192 155 107
0.696932 -0.250844 6.36493 45 23 3
0.0699152 -0.393802 6.63944 218 183 124
0.562771 -0.23167 6.34373 247 215 160
0.680419 -0.23093 6.3491 212 180 131
0.836317 -0.571612 6.5014 190 165 109
-0.555858 -0.661462 6.78501 249 220 157
0.927067 -0.291348 6.30178 134 114 87
0.493653 0.248106 6.90541 167 139 100
-0.0348951 0.196664 7.05014 174 136 80
-0.608638 -0.502091 6.59886 158 119 60
0.707495 0.175202 6.85813 15 9 3
-0.173958 -0.345942 6.63099 201 171 119
0.0336912 -0.351492 6.6082 67 35 0
-0.447816 -0.117445 6.42241 55 28 9
1.08022 -0.120282 6.40214 161 143 109
-0.449437 -0.0630663 6.4111 38 21 13
0.735878 -0.418649 6.49935 81 52 13
0.355729 -0.0893236 6.24239 24 12 0
0.0450423 -0.392819 6.62248 111 78 30
-0.382455 -0.400329 6.68597 235 199 140
-0.153418 -0.415059 6.68874 226 192 133
0.785712 -0.111259 6.18307 39 27 16
0.546557 -0.392647 6.52573 83 58 21
0.529205 -0.102305 6.21711 33 14 0
-0.178198 -0.362176 6.64473 81 47 2
-0.195262 -0.348637 6.64172 215 183 126
-0.384831 -0.31113 6.67276 64 34 3
1.0124 -0.294949 6.21357 174 150 100
-0.211311 -0.336052 6.6418 59 29 0
-0.133541 -0.333191 6.63161 54 24 0
-0.0275292 -0.336305 6.63307 32 14 0
0.133396 -0.339019 6.59833 75 60 39
-0.716261 -0.29254 6.29617 128 96 55
1.03295 -0.448664 6.25481 42 28 1
0.750686 -0.45538 6.52634 201 171 116
0.788474 -0.502848 6.53434 174 155 114
0.828328 -0.453595 6.43476 192 169 123
-0.676057 -0.501471 6.53138 116 81 34
-0.42336 -0.543597 6.76188 32 22 12
-0.474783 -0.589691 6.78644 240 213 154
0.209881 -0.0671769 6.31855 23 8 0
-0.566386 -0.610145 6.71972 143 109 50
0.403164 -0.0592618 6.22697 32 19 1
1.0437 0.0194537 6.71315 168 146 109
0.641476 -0.237006 6.3695 224 191 134
0.970753 0.041403 6.69392 160 137 105
0.929886 0.0517773 6.67614 178 154 117
0.867742 0.126962 6.76098 16 8 1
0.879942 0.0970155 6.7475 154 134 102
0.844139 0.138401 6.80289 167 144 114
-0.382697 0.184328 6.77707 207 173 128
0.391944 -0.0821583 6.24227 253 222 164
0.579174 -0.141313 6.25244 45 26 2
-0.0895082 0.327342 7.07578 165 137 98
0.947996 -0.202153 6.23466 41 23 1
0.0196519 -0.130618 6.36728 196 169 126
-0.697266 -0.211479 6.26967 250 211 149
0.829517 -0.499706 6.43973 182 158 106
0.923639 -0.25363 6.29218 42 20 3
0.570959 -0.273891 6.37419 243 212 155
0.337243 -0.423929 6.6061 24 8 0
0.501067 -0.0701493 6.20508 235 206 161
-0.734555 -0.274035 6.28688 241 211 154
-0.18428 -0.370404 6.64655 113 85 46
0.814239 -0.401144 6.35379 207 182 133
-0.382348 -0.374142 6.67914 69 43 15
0.71776 -0.383813 6.49873 34 18 2
0.346467 -0.39648 6.59475 197 168 119
0.176955 0.234563 6.99877 181 149 105
0.119266 -0.0305693 6.32966 54 37 13
-0.22321 -0.291431 6.64898 57 32 1
1.02862 -0.402187 6.22371 137 120 82
0.780717 -0.255391 6.20799 200 173 124
-0.130361 0.0362665 6.86839 135 116 81
0.870062 -0.171574 6.22623 206 175 122
-0.0112217 -0.0368614 6.35824 125 107 79
0.855564 -0.40869 6.45601 64 38 7
0.439278 -0.309285 6.4795 204 176 121
0.736798 -0.321833 6.41059 216 184 134
1.01492 0.0513751 6.70951 5 1 0
-0.0683143 -0.380883 6.62848 167 141 89
0.879507 -0.395281 6.41436 134 112 81
0.869498 -0.421205 6.4475 141 116 86
-0.668075 0.192587 6.45798 24 11 6
0.152947 0.162018 7.09661 10 2 0
-0.432197 -0.164693 6.44993 237 198 149
0.89313 -0.651859 6.54847 21 9 0
0.752356 -0.0494424 6.27631 62 43 20
-0.366122 0.109551 6.85504 174 146 110
0.798118 -0.48101 6.5014 69 49 15
0.530425 0.255306 6.93233 73 47 21
0.661961 -0.11003 6.23248 58 41 19
-0.565946 -0.155276 6.30967 255 221 169
0.879029 -0.457681 6.43633 55 40 20
0.353688 -0.044541 6.25189 116 97 65
