ply
format ascii 1.0
element vertex 145
property float x
property float y
property float z
property uchar red
property uchar green
property uchar blue
end_header
0.320297 -0.0326921 8.521 9 0 0
0.827779 0.266002 8.33782 235 191 121
0.32514 -0.236571 8.24057 245 212 151
-0.331959 -0.235241 8.61299 91 59 8
0.314402 0.0851905 8.64328 14 3 0
0.134731 -0.176281 8.41823 207 179 138
-1.22389 -0.0227945 9.56559 54 36 28
0.653338 0.0492394 8.31344 232 196 140
0.971782 -0.206054 7.88257 183 151 96
0.675259 0.112045 8.32167 132 95 44
-1.00782 0.39026 9.76868 232 197 150
0.816082 0.338643 8.42736 239 197 133
0.738054 0.321039 8.34182 38 21 3
1.23464 0.310676 8.23954 175 148 105
0.987636 0.248456 8.16315 199 166 115
1.20404 0.0294607 7.89941 23 12 0
1.02706 -0.200516 7.90261 50 30 12
0.522955 0.38091 8.62097 248 208 146
1.12007 0.365245 8.31354 187 158 119
0.89692 0.304907 8.34101 193 154 110
0.735192 0.153019 8.32911 150 110 77
0.0286186 0.117705 8.81465 255 251 170
1.00599 -0.248402 7.87008 68 48 19
0.318347 0.356427 8.79504 93 71 51
1.17586 0.31316 8.25504 183 156 108
0.752813 0.277939 8.38613 239 195 125
0.86718 0.164769 8.28793 97 63 23
0.79197 0.15789 8.32041 119 78 48
0.894158 0.12763 8.25485 230 194 138
0.0658411 0.0942563 8.75085 21 10 0
1.29498 0.0929734 7.83882 61 45 19
0.893372 0.0796869 8.22784 213 176 118
1.16352 0.00998694 7.93447 161 137 104
0.887496 -0.0950961 8.12251 206 173 121
1.09316 -0.137632 7.85903 163 137 100
1.0686 -0.183976 7.83797 168 144 108
0.830879 -0.201869 8.04846 207 177 116
-0.038494 -0.248147 8.39764 115 75 38
-0.377972 -0.263741 8.59636 255 228 168
-0.0402004 -0.2758 8.37494 255 249 175
-0.581223 -0.373445 8.67468 140 97 40
0.779912 0.322089 8.42607 231 198 140
1.0814 0.300986 8.2751 92 59 13
0.287804 0.301702 8.70032 217 179 132
0.237395 0.254348 8.68182 255 229 167
-0.669947 0.236457 9.40916 80 49 18
0.643473 0.247654 8.43876 113 78 39
0.00622621 0.237147 8.80266 255 228 159
-0.308697 0.226588 9.02731 255 242 168
-0.0611025 0.21509 8.83731 166 119 57
-0.606075 0.189477 9.29432 169 123 60
-0.605117 0.189818 9.28549 169 123 60
0.869155 0.202396 8.30717 119 82 32
0.324266 0.141117 8.63846 255 226 155
0.871679 0.100403 8.2433 104 70 29
0.846082 -0.0600902 8.14937 246 211 145
0.866854 -0.0776687 8.15175 88 54 9
0.886382 -0.0938908 8.11346 206 173 121
-0.0781105 -0.191369 8.50569 226 190 134
-0.170497 -0.200229 8.54834 228 200 150
-0.23635 -0.206545 8.59223 214 181 131
0.877889 -0.182539 8.03462 188 159 105
0.319078 -0.196228 8.28632 212 180 121
-0.351153 -0.219117 8.64844 223 188 124
-0.25301 -0.245624 8.5318 210 176 119
0.186406 -0.233054 8.29492 179 137 70
0.338718 -0.25462 8.22708 160 124 63
-0.439624 -0.303433 8.60363 118 80 33
1.05198 -0.29524 7.69595 85 67 31
-0.0257482 -0.222346 8.41665 227 198 142
0.0334773 -0.199464 8.43965 59 35 2
0.976125 0.339504 8.32314 204 179 138
0.668428 -0.177464 8.11084 193 167 127
0.689695 -0.176977 8.10166 207 176 131
0.661347 0.28842 8.47231 102 67 20
0.306395 0.263519 8.6354 235 199 153
-0.629364 0.173558 9.31599 254 220 163
0.640924 0.170542 8.39641 148 108 60
0.67588 0.155821 8.3498 141 101 52
-0.705927 0.12545 9.25698 152 110 61
0.934708 0.0934259 8.18163 174 141 100
0.68931 -0.115042 8.14959 115 78 27
1.05928 -0.105566 7.98498 135 108 78
1.04048 -0.343277 7.66342 130 107 57
0.864573 -0.10226 8.13363 110 76 27
0.62954 -0.207593 8.11501 203 175 123
0.66682 0.0671362 8.333 140 103 50
0.953641 0.104286 8.15579 78 51 13
0.61895 -0.196281 8.13518 113 82 36
1.07504 -0.0772657 8.00928 134 109 79
0.649462 -0.0527249 8.2428 242 204 144
0.73417 -0.166866 8.13121 190 155 95
0.926368 -0.0519686 8.07801 171 142 101
0.0119664 -0.257242 8.37224 255 216 155
0.625891 -0.239979 8.08719 237 202 139
-0.576239 -0.341607 8.67936 255 242 160
1.15001 0.109791 8.13979 60 31 5
0.23993 -0.24626 8.27438 254 216 152
1.11358 0.00449261 8.03611 123 102 77
0.110263 -0.241396 8.32966 185 146 80
1.00742 -0.287002 7.77648 167 142 103
1.15006 0.0849412 8.067 136 112 81
1.033 -0.132383 8.01248 80 50 10
0.87973 -0.135656 8.0664 186 153 101
-0.640361 -0.324454 8.72829 178 136 81
0.0262039 -0.268476 8.348 178 136 68
0.653495 0.271989 8.44783 208 173 127
0.826609 0.165739 8.30909 132 95 47
1.03548 -0.151817 7.96548 143 116 82
0.949908 0.237513 8.20368 92 64 33
0.988343 -0.288166 7.81238 81 56 15
-0.0142487 0.209181 8.80123 194 149 91
0.8694 0.135045 8.27658 114 81 34
0.32735 0.331269 8.74248 33 17 1
0.939817 -0.0470809 7.97797 90 65 32
0.936881 -0.0998657 7.95589 94 72 35
1.19899 0.217411 8.18325 60 33 4
0.888988 -0.0508654 8.14514 212 178 122
1.02989 -0.307699 7.72026 184 159 119
1.08673 0.242185 8.24572 109 72 25
1.08043 0.271414 8.24976 123 90 40
1.06472 -0.141738 7.92756 44 27 6
1.06757 0.317486 8.29248 212 172 121
0.973581 -0.338265 7.75991 195 164 112
0.667489 0.35073 8.48942 142 103 48
0.684996 0.363702 8.46797 216 179 121
0.840658 0.0911909 8.26049 205 168 111
0.825026 0.373262 8.46519 12 3 1
0.330056 -0.27578 8.23062 254 229 162
0.894115 0.183963 8.28451 223 182 124
-0.300685 0.175267 8.98595 255 247 171
0.842736 0.282034 8.37395 240 195 126
0.631919 -0.03658 8.25603 144 109 53
0.929707 -0.0189299 8.10264 172 141 104
0.692053 0.0689628 8.27684 233 195 133
0.93119 0.00688471 8.12252 178 146 107
1.02443 -0.173205 7.95331 126 102 72
1.17961 0.163751 8.17241 65 37 7
1.19774 0.290287 8.24114 112 81 38
0.759007 0.10352 8.27865 218 174 107
0.665016 -0.0263789 8.24254 166 129 72
0.62264 0.253925 8.47084 227 181 128
0.807297 -0.160362 8.10707 185 148 91
-0.601686 -0.319409 8.70682 200 155 92
1.096 -0.00415206 8.06173 66 37 1
