ply
format ascii 1.0
element vertex 123
property float x
property float y
property float z
property uchar red
property uchar green
property uchar blue
end_header
-1.55819 -0.146789 28.5499 209 172 130
-2.53388 -2.06248 23.0906 253 236 190
-2.54155 1.96082 34.3449 109 77 45
-0.918961 2.06793 31.5788 123 90 54
1.30131 1.03663 26.2154 4 0 1
1.54257 0.648693 25.2083 169 143 107
-1.60376 -0.0683477 28.5588 72 46 14
2.31541 1.56869 25.8676 149 116 76
0.437202 1.94649 27.8249 103 77 40
2.60313 -0.533484 22.4214 77 52 15
-2.179 -0.358121 25.5224 170 148 115
-2.10567 -0.322514 25.8009 60 38 18
-3.20526 -0.393617 28.3457 158 133 97
1.03771 0.0397639 24.6294 174 143 96
-1.73954 -0.874466 23.8456 74 54 28
-0.16939 2.04152 28.8289 152 120 88
3.4082 -1.79168 20.5811 48 31 7
3.05899 -1.31209 19.8667 153 136 92
-3.90446 3.10536 40.7045 158 126 80
-0.402204 2.25655 30.5004 151 118 78
-3.54582 2.01619 36.5173 153 123 83
-0.637541 -0.154637 27.4762 10 0 0
2.21068 -0.892999 20.2243 150 126 92
0.590899 1.56868 27.399 107 84 56
1.67491 -1.19705 19.9028 64 43 8
-0.290359 1.63112 28.7917 150 125 85
2.46874 -0.914004 19.7654 39 28 3
1.89948 -0.851689 19.9938 48 36 20
-1.64358 -1.25685 23.4309 65 41 11
-0.03744 -1.00538 21.5018 26 13 0
-1.61788 0.0938661 28.5141 95 65 34
-0.600028 0.107009 26.5605 77 46 13
-0.612091 -0.96994 22.1052 126 106 70
0.84431 -0.870193 20.7211 62 39 10
-1.26882 0.184608 27.8917 185 150 102
-0.718152 -0.0437323 27.2868 98 62 17
0.418988 -0.845877 21.0975 87 63 30
1.67925 -0.396127 23.2433 139 112 69
-0.76615 0.322257 27.1664 66 42 18
-1.247 1.95541 30.8786 180 149 105
3.57554 -0.738621 20.8916 161 135 91
3.6552 0.367883 23.0584 171 145 111
2.47598 -0.823372 19.7672 72 58 36
3.66686 -1.04036 21.0309 156 129 80
3.75558 -1.21113 21.028 6 2 1
1.35897 0.578102 25.3821 176 146 95
-1.36584 -0.0899144 28.3083 92 60 21
-0.5218 1.87373 29.2055 56 33 5
-1.53985 1.98249 31.6146 175 147 116
1.14151 0.0938938 24.5396 152 124 84
1.24755 0.123693 24.3425 49 29 0
1.1788 0.139466 24.4111 66 42 9
-0.731429 0.160037 26.845 73 45 9
1.22112 0.182918 24.4129 177 147 105
1.27237 0.23247 24.4894 72 46 14
-1.88391 0.815302 28.3848 200 167 128
-1.49453 1.79123 31.3859 49 23 1
-0.450978 0.323694 26.6096 107 79 38
-1.89457 0.698591 28.7762 195 166 124
-0.663006 0.524685 27.7337 173 138 89
3.6163 0.203886 22.8106 176 148 109
0.419828 0.0259885 25.5758 162 132 81
2.86269 0.845144 23.642 168 141 109
1.30076 0.49186 25.0529 90 62 25
3.61617 -0.730661 21.0963 165 141 99
2.43106 0.987034 24.219 31 16 0
1.89237 -0.824752 20.3049 41 23 5
2.53745 -0.942623 19.5989 162 146 101
2.91924 1.04852 24.4299 166 135 96
3.75287 -1.20008 21.0814 12 3 3
-0.670584 1.58954 29.7062 179 144 103
1.25108 1.48481 26.6068 135 105 73
-1.76503 1.73694 32.1852 89 55 20
2.35436 0.918776 24.1519 158 128 94
-1.36419 1.75036 31.0784 171 139 98
-1.37292 0.157527 28.0704 91 62 15
-0.513044 0.486664 27.4862 91 61 39
-0.527075 2.06741 29.5706 72 48 15
1.46123 0.443545 24.488 55 32 6
2.72388 0.424318 23.1565 99 74 38
-1.39394 1.99108 31.3117 65 40 13
-1.76738 1.06646 30.5494 152 134 108
3.02169 0.829325 24.1332 19 8 6
-1.55823 0.567155 29.8045 154 117 68
0.379091 0.402173 25.6738 85 59 27
-2.37588 -1.71999 23.1396 102 74 33
-1.11235 0.317295 27.7288 194 161 113
1.06897 -1.21175 20.3303 117 101 73
0.891787 -1.17106 20.9523 122 109 87
3.60765 0.0368255 22.6284 178 150 108
0.374453 -1.07992 21.0634 115 100 69
1.18196 -0.998992 20.0188 35 21 0
1.57332 -0.100415 23.5073 177 148 101
3.64863 -0.927351 20.7801 161 139 105
-0.822299 -1.03951 22.4254 37 20 1
2.35975 -0.87971 20.1126 66 45 14
2.27684 -0.878784 20.1591 69 49 18
-1.91288 -1.06011 23.5539 56 36 5
-1.61712 -0.702576 26.1418 115 89 54
0.365873 -0.889433 21.0592 165 142 104
3.548 -0.598919 22.0228 152 125 82
1.95359 -0.762886 20.19 142 123 89
2.19381 -0.802014 20.3011 66 45 20
0.325491 0.125614 25.413 86 60 26
-1.70993 -1.13478 23.4889 54 38 20
1.83146 -1.05293 20.174 43 25 5
2.54147 -0.300548 22.6639 70 46 14
2.4417 -1.03909 19.8078 38 26 3
1.88689 -0.00941978 23.3976 185 158 117
3.58509 -1.20611 20.7328 163 139 97
2.44601 -1.17897 19.6325 41 30 9
2.37817 -1.23598 19.7803 127 107 71
-0.630345 -0.140069 27.0994 21 5 0
1.78902 0.799241 24.4323 146 118 80
1.28215 1.52345 26.3974 56 35 12
-0.341717 0.327481 26.4103 198 169 124
1.15487 -0.137615 24.5998 5 3 3
-0.964255 0.159016 27.1811 172 139 91
2.30908 -0.834756 20.1429 142 120 83
1.78443 0.803249 24.3106 150 123 80
0.737572 -0.915161 20.6727 151 132 91
2.5838 -0.0400219 22.8263 177 152 110
-3.33098 -0.104704 30.5532 146 120 84
