ply
format ascii 1.0
element vertex 57
property float x
property float y
property float z
property uchar red
property uchar green
property uchar blue
end_header
0.788919 -0.454651 8.83116 188 165 130
1.22142 -0.612491 8.52911 17 11 1
-0.877077 -1.00266 9.24069 31 22 18
-0.259555 -0.438612 9.29282 178 153 112
-0.645289 -0.703629 9.39342 247 221 159
0.786617 0.0233641 8.67125 45 24 1
0.786617 0.0233641 8.67125 45 24 1
-0.611162 -0.496819 9.46436 65 39 15
-0.0495799 0.0485774 9.10806 205 167 121
0.798265 -0.0098864 8.66386 233 200 137
0.969947 -0.193655 8.67817 218 185 137
0.807052 -0.201858 8.76987 50 21 0
0.807052 -0.201858 8.76987 50 21 0
0.640481 -0.0205231 8.7806 113 74 30
0.640481 -0.0205231 8.7806 113 74 30
1.27311 -0.351809 8.48372 160 143 108
1.27311 -0.351809 8.48372 160 143 108
0.0554327 -0.432724 9.14273 71 45 12
1.39327 -0.406103 8.31238 178 158 118
1.02575 0.0351172 8.54976 213 189 145
-1.06139 -0.573296 9.3449 129 92 43
-1.06139 -0.573296 9.3449 129 92 43
0.495332 -0.537339 8.98009 255 241 178
1.03844 -0.622259 8.77584 176 155 114
0.821169 0.0446563 8.66941 230 202 152
0.821169 0.0446563 8.66941 230 202 152
-0.332295 -0.444302 9.32481 218 185 122
0.853469 -0.111369 8.71456 131 94 47
-0.357508 -0.430238 9.35668 63 35 1
-0.136968 -0.425368 9.23492 215 193 150
-0.308052 -0.463275 9.30425 77 44 2
0.714588 -0.461022 8.8772 80 50 13
0.72652 -0.543738 8.90707 113 83 30
1.21786 -0.01361 8.54504 124 92 48
0.953323 -0.667253 8.8058 6 2 0
1.48501 -0.0765247 8.85333 142 123 96
0.727362 -0.312071 8.82287 226 196 143
0.705858 -0.294478 8.84421 121 86 40
0.968263 -0.105503 8.72663 232 193 140
0.726747 -0.476404 8.86728 181 156 118
0.706399 -0.197181 8.82269 113 79 35
0.390872 -0.470775 9.01287 95 67 21
1.21797 0.0255106 8.52726 90 66 32
1.27142 -0.168886 8.54805 120 103 77
1.24945 -0.17618 8.60812 40 18 0
0.986568 -0.318459 8.75076 212 179 125
1.38978 -0.349205 8.31192 41 24 1
0.960465 -0.0428667 8.61605 220 181 127
-0.0247287 -0.467966 9.15478 182 153 94
1.12437 0.00859166 8.55087 101 67 26
-0.320582 -0.475453 9.29896 101 71 35
0.827356 -0.413591 8.85345 163 130 77
0.573917 -0.323541 8.90703 217 184 125
0.343674 0.0566599 8.90926 159 129 98
0.759231 -0.221481 8.74991 230 196 140
-0.625711 -0.567032 9.44144 163 122 67
0.166978 -0.487207 9.08047 166 131 67
