ply
format ascii 1.0
element vertex 64
property float x
property float y
property float z
property uchar red
property uchar green
property uchar blue
end_header
-0.419492 0.0822732 6.26384 56 33 18
0.588745 -0.286702 6.36342 181 156 123
-0.152125 -0.256894 6.44965 175 149 114
0.721845 -0.0878414 6.28438 215 183 128
0.601078 -0.0929569 6.30423 52 25 0
-0.213261 -0.119997 6.70885 251 211 145
0.947279 -0.199218 6.20306 160 142 108
0.71662 -0.207424 6.32974 94 60 17
0.701708 -0.306436 6.36355 208 178 121
0.0299759 -0.306317 6.44268 109 77 35
0.462506 -0.387059 6.42242 31 10 0
-0.238506 -0.114995 6.70984 91 58 12
0.237775 0.104963 6.27764 209 171 122
0.766015 0.0461822 6.18275 22 13 2
0.635243 -0.0236065 6.27358 121 82 42
-0.695025 -0.146669 6.11959 255 228 161
-0.0683185 -0.250865 6.44465 217 192 149
0.265286 -0.339479 6.4772 251 215 144
0.251777 0.153996 6.2883 140 119 94
0.761208 0.0921752 6.18833 214 190 144
1.00894 -0.122141 6.14789 19 10 0
0.257507 0.17719 6.29559 173 152 123
-0.443775 -0.016664 6.26542 142 104 59
-0.516961 -0.0478085 6.21877 162 124 76
0.547393 0.103031 6.21793 228 194 135
0.35788 0.107202 6.22786 237 206 146
-0.21788 -0.247822 6.45383 67 38 2
0.534552 -0.292 6.3815 85 56 12
0.542972 -0.356796 6.40612 123 88 36
0.0703786 -0.309159 6.44906 254 220 157
0.54392 -0.3042 6.38315 184 157 117
0.301633 -0.297285 6.42532 104 67 22
0.595676 0.0572986 6.23016 235 196 131
0.618183 -0.0667233 6.3011 234 192 124
0.5439 -0.176932 6.3393 227 195 144
0.142556 -0.30466 6.43516 171 133 71
0.707447 -0.447511 6.36331 4 1 1
-0.575593 -0.0736592 6.20987 161 118 62
0.731949 -0.184858 6.32297 210 178 123
-0.680655 -0.454755 6.3085 162 119 52
-0.232405 0.0467823 6.29778 151 107 56
0.0249591 0.0448663 6.3076 153 108 62
0.102405 -0.284889 6.43101 244 208 137
0.0431602 0.168489 6.32504 115 97 69
-0.459564 -0.147469 6.33405 171 128 69
-0.194636 -0.281815 6.45045 103 70 35
0.832796 0.0698632 6.1983 108 73 36
0.913696 -0.488361 6.24328 227 209 152
0.858097 0.0270797 6.21915 92 61 15
0.553487 -0.160349 6.3345 143 110 57
-0.390931 -0.194238 6.48078 96 67 34
0.847001 0.101375 6.18297 100 70 27
0.732706 -0.220342 6.3217 202 171 123
0.709243 -0.0117551 6.21638 217 180 124
0.874925 0.0518359 6.20211 204 169 117
0.905051 -0.16921 6.25828 120 100 78
0.0402209 -0.283931 6.43691 190 163 106
0.0400663 -0.283061 6.43224 190 163 106
0.941063 -0.0656431 6.21896 121 99 75
0.754838 -0.0892217 6.26342 176 144 104
0.612811 -0.349779 6.38623 147 113 54
0.768507 -0.10263 6.22889 76 50 13
0.737978 -0.326566 6.34889 187 159 107
0.713924 0.0304989 6.22954 213 176 121
