ply
format ascii 1.0
element vertex 123
property float x
property float y
property float z
property uchar red
property uchar green
property uchar blue
end_header
-1.41541 -0.00989956 23.8297 209 172 130
-2.56525 -1.97749 22.1308 253 236 190
-1.88552 1.57477 23.6844 109 77 45
-0.802383 1.76254 23.9313 123 90 54
1.10754 1.04231 23.5071 4 0 1
1.37276 0.690894 23.2845 169 143 107
-1.44829 0.0591709 23.7263 72 46 14
2.05694 1.54261 23.4175 149 116 76
0.28749 1.79179 23.3662 103 77 40
2.60012 -0.511429 22.5707 77 52 15
-1.98942 -0.211939 21.7778 170 148 115
-1.92299 -0.179395 21.9921 60 38 18
-2.62758 -0.172947 21.9196 158 133 97
0.915862 0.105642 23.178 174 143 96
-1.71627 -0.752272 21.8793 74 54 28
-0.229531 1.82838 23.4044 152 120 88
3.65206 -1.95152 22.0074 48 31 7
3.28298 -1.43596 21.3112 153 136 92
-2.40247 2.08346 23.4843 158 126 80
-0.410719 1.9496 23.7882 151 118 78
-2.39045 1.52394 23.0992 153 123 83
-0.652971 -0.0393559 23.9682 10 0 0
2.30585 -0.950398 21.2927 150 126 92
0.43106 1.48661 23.5009 107 84 56
1.74766 -1.29823 21.1633 64 43 8
-0.331631 1.49542 23.5941 150 125 85
2.61337 -0.988835 21.0315 39 28 3
1.97433 -0.909518 21.0836 48 36 20
-1.67122 -1.16106 22.1562 65 41 11
-0.116664 -1.00713 21.6446 26 13 0
-1.45213 0.199153 23.539 95 65 34
-0.624808 0.190497 23.3854 77 46 13
-0.695046 -0.936826 21.7294 126 106 70
0.813152 -0.898408 21.3463 62 39 10
-1.17723 0.271605 23.4598 185 150 102
-0.721363 0.0619378 23.6663 98 62 17
0.358303 -0.855724 21.4545 87 63 30
1.60493 -0.349616 22.8153 139 112 69
-0.760723 0.387567 23.4149 66 42 18
-1.06121 1.67955 23.5063 180 149 105
3.7406 -0.767548 21.807 161 135 91
3.60436 0.42279 22.7431 171 145 111
2.61542 -0.887053 20.9881 72 58 36
3.85335 -1.09569 22.0413 156 129 80
3.95931 -1.28326 22.0972 6 2 1
1.19456 0.623428 23.3588 176 146 95
-1.25858 0.0358909 23.7803 92 60 21
-0.517275 1.67499 23.4383 56 33 5
-1.26344 1.67483 23.5371 175 147 116
1.01722 0.157506 23.1239 152 124 84
1.12537 0.184723 23.0499 49 29 0
1.05587 0.200687 23.0572 66 42 9
-0.736096 0.241385 23.3724 73 45 9
1.09529 0.243167 23.0306 177 147 105
1.14164 0.291785 23.047 72 46 14
-1.62248 0.798533 22.5862 200 167 128
-1.24247 1.54095 23.6554 49 23 1
-0.489095 0.386931 23.3206 107 79 38
-1.62818 0.703234 22.8603 195 166 124
-0.663625 0.566438 23.6277 173 138 89
3.59126 0.25508 22.6556 176 148 109
0.308934 0.104134 23.3651 162 132 81
2.72578 0.892685 22.682 168 141 109
1.14922 0.541922 23.2248 90 62 25
3.77114 -0.754602 21.9516 165 141 99
2.26255 1.02309 22.8576 31 16 0
1.95167 -0.870181 21.2615 41 23 5
2.69783 -1.02513 20.9228 162 146 101
2.73045 1.08331 23.0354 166 135 96
3.95161 -1.26926 22.1279 12 3 3
-0.635119 1.43465 23.6711 179 144 103
1.0396 1.43707 23.4191 135 105 73
-1.42263 1.47852 23.7464 89 55 20
2.19371 0.957833 22.8449 158 128 94
-1.15064 1.51787 23.6242 171 139 98
-1.26157 0.249391 23.5033 91 62 15
-0.535017 0.533533 23.5447 91 61 39
-0.517007 1.81937 23.4546 72 48 15
1.32048 0.495695 23.0034 55 32 6
2.63754 0.477753 22.6065 99 74 38
-1.16292 1.6932 23.5495 65 40 13
-1.48535 0.991011 23.596 152 134 108
2.86152 0.875542 23.004 19 8 6
-1.35805 0.597986 23.7639 154 117 68
0.266834 0.456526 23.2469 85 59 27
-2.37833 -1.61046 21.8575 102 74 33
-1.04779 0.385443 23.4452 194 161 113
1.07371 -1.29389 21.3628 117 101 73
0.867295 -1.22227 21.674 122 109 87
3.60575 0.0823755 22.6146 178 150 108
0.315375 -1.11167 21.581 115 100 69
1.19698 -1.06711 21.0604 35 21 0
1.47643 -0.0447686 22.7585 177 148 101
3.84067 -0.977306 21.8113 161 139 105
-0.899245 -0.993288 21.8438 37 20 1
2.47348 -0.939653 21.2316 66 45 14
2.37978 -0.936435 21.2454 69 49 18
-1.89111 -0.937466 21.757 56 36 5
-1.54432 -0.545958 23.0887 115 89 54
0.303672 -0.90336 21.4467 165 142 104
3.62227 -0.591169 22.4678 152 125 82
2.02044 -0.805734 21.1714 142 123 89
2.27968 -0.847802 21.3037 66 45 20
0.221068 0.196377 23.2534 86 60 26
-1.71766 -1.02571 21.9606 54 38 20
1.90276 -1.12838 21.2958 43 25 5
2.51086 -0.263808 22.5949 70 46 14
2.58729 -1.12715 21.103 38 26 3
1.79594 0.0438144 22.7648 185 158 117
3.79352 -1.28656 21.8792 163 139 97
2.61021 -1.29189 21.0551 41 30 9
2.52977 -1.35034 21.1674 127 107 71
-0.65063 -0.0307181 23.8137 21 5 0
1.63048 0.837833 22.8913 146 118 80
1.07274 1.47604 23.3376 56 35 12
-0.392915 0.389619 23.2894 198 169 124
1.0339 -0.0674845 23.2526 5 3 3
-0.933826 0.243422 23.3909 172 139 91
2.41415 -0.888656 21.2253 142 120 83
1.6234 0.841095 22.7342 150 123 80
0.702003 -0.948736 21.3327 151 132 91
2.53238 0.00644093 22.5741 177 152 110
-2.60576 0.0796403 22.541 146 120 84
