ply
format ascii 1.0
element vertex 69
property float x
property float y
property float z
property uchar red
property uchar green
property uchar blue
end_header
0.643456 -0.229329 7.4832 38 17 2
0.643456 -0.229329 7.4832 38 17 2
-0.863347 -0.456909 7.41764 250 215 151
-0.265481 -0.289473 7.62733 112 79 33
-0.265481 -0.289473 7.62733 112 79 33
0.404773 0.226052 7.46119 244 208 149
0.675164 0.192119 7.43228 51 27 7
-0.836134 -0.207674 7.37842 140 103 54
-0.491447 -0.229968 7.69699 69 40 7
0.968569 -0.483508 7.2837 232 207 147
-0.520277 0.168337 7.6127 66 35 4
0.02571 0.153022 7.56534 255 228 163
0.725671 0.0607538 7.44713 115 78 37
0.821343 0.0302902 7.43215 228 193 140
0.823304 -0.0142659 7.43131 217 182 128
1.03018 -0.255336 7.30238 158 132 96
1.03018 -0.255336 7.30238 158 132 96
0.00179305 -0.297546 7.59048 103 71 29
0.284706 0.254873 7.56658 155 134 107
1.01 -0.300822 7.30325 164 139 103
0.114625 -0.357388 7.63243 255 227 150
0.596287 0.182301 7.45644 76 44 2
0.28428 0.16834 7.51375 240 205 155
0.584594 0.144273 7.46057 73 40 6
-0.0339796 -0.233336 7.62401 228 190 128
-0.253358 -0.267587 7.6404 81 49 2
0.638521 -0.25741 7.47356 171 150 114
0.0646141 -0.245974 7.61134 59 34 0
-0.34445 -0.330954 7.64168 115 77 28
-0.34445 -0.330954 7.64168 115 77 28
0.513012 -0.0279648 7.54113 237 199 130
-0.835451 -0.691222 7.49315 255 255 183
-0.639947 0.0388178 7.50647 163 123 75
0.732233 -0.00677536 7.46632 227 188 128
1.07621 0.242676 7.47551 4 0 0
1.07621 0.242676 7.47551 4 0 0
0.641067 0.0360636 7.44695 235 197 137
0.776527 -2.93994e-06 7.45818 194 157 104
-0.869946 -0.0726686 7.34609 255 227 161
-0.464183 -0.246575 7.67442 136 104 65
0.0369994 0.25828 7.63813 111 95 80
0.792743 0.0981935 7.42265 126 88 41
0.320617 -0.255463 7.55253 211 177 118
-0.25065 -0.301 7.62243 245 210 147
0.592272 0.165741 7.4505 205 172 131
0.628449 -0.169384 7.48765 139 103 47
-0.294991 0.128162 7.59887 186 141 81
1.09428 0.105252 7.36973 46 22 0
0.0592319 -0.318543 7.59919 144 112 45
0.987204 0.130578 7.37996 97 64 17
1.0582 0.00671848 7.38468 42 16 0
0.862165 -0.0100304 7.40561 184 151 104
0.830874 -0.178722 7.44228 200 171 117
-0.511615 -0.342344 7.6494 163 126 70
0.986631 -0.431804 7.28529 176 153 113
0.483893 -0.15204 7.55555 214 179 116
0.816965 0.0794282 7.42156 218 179 124
0.816965 0.0794282 7.42156 218 179 124
1.07236 0.0406945 7.37291 48 24 0
0.646122 -0.0443319 7.46492 241 204 141
1.08209 -0.425078 7.21673 178 155 106
0.992115 -0.205834 7.37532 136 113 83
0.641671 -0.0261632 7.45731 219 183 127
0.84827 -0.282393 7.43513 86 59 19
0.84827 -0.282393 7.43513 86 59 19
0.977651 0.22506 7.35929 109 77 32
0.977651 0.22506 7.35929 109 77 32
0.623102 -0.107997 7.47441 163 129 73
1.07892 0.0575627 7.37198 59 31 3
