ply
format ascii 1.0
element vertex 69
property float x
property float y
property float z
property uchar red
property uchar green
property uchar blue
end_header
0.166021 -0.321528 6.9578 255 255 198
0.810793 0.100795 6.68474 22 12 3
0.432822 0.234363 6.84128 51 36 15
0.62147 0.131209 6.77211 45 22 0
0.847247 -0.486864 6.70219 204 178 121
-0.490415 0.0682106 7.05916 102 64 27
0.692482 -0.0604892 6.79421 41 17 0
-0.260622 -0.169327 7.41902 255 216 143
0.64795 0.147254 6.76882 235 203 148
0.548788 0.123641 6.79696 66 38 2
0.538274 0.0890131 6.80174 67 38 8
-0.0996648 -0.2547 7.00762 219 196 149
-0.164832 -0.224833 7.08081 47 22 0
0.233316 0.179344 6.9091 27 13 4
-0.462846 0.0619157 7.06302 238 196 145
0.996135 -0.161645 6.63675 162 142 104
-0.265047 -0.31132 7.02147 251 222 164
0.800511 -0.412773 6.77031 180 157 113
0.26133 0.1123 6.87132 234 199 147
0.668744 0.013518 6.7838 117 78 40
-0.0601247 -0.256224 7.00733 28 12 0
-0.264647 -0.256404 7.05149 68 42 3
-0.239559 -0.303604 7.02274 98 67 20
0.244103 0.148009 6.88404 212 176 129
-0.822502 0.0951001 6.92725 243 204 146
0.113462 -0.236405 6.99467 55 32 6
0.573086 0.0101109 6.79373 132 94 44
-0.517332 0.00458848 7.02686 143 101 56
0.57425 -0.0270595 6.8031 97 61 19
0.609892 -0.275574 6.81782 185 157 123
0.377049 0.154827 6.80443 239 203 142
0.253257 -0.237691 6.93826 198 164 110
-0.228785 -0.281907 7.03171 85 53 2
-0.239181 -0.290241 7.02866 103 73 33
0.195074 -0.300295 6.93022 150 109 54
0.948492 -0.466094 6.6031 229 210 149
0.085855 -0.285389 6.95013 243 211 143
-0.601855 -0.0248566 6.992 156 118 71
0.675315 -0.0459242 6.80539 226 187 127
0.758539 -0.0550538 6.76432 215 181 128
0.62898 0.105703 6.76066 234 195 128
0.576449 -0.139094 6.82345 154 122 67
0.768308 -0.203594 6.79426 198 172 119
0.730692 0.0150868 6.75437 110 76 37
0.566185 -0.158665 6.83372 232 198 142
0.56137 -0.296544 6.83819 196 170 126
0.591238 -0.0104649 6.78752 239 201 139
0.300399 -0.269544 6.91131 195 166 108
0.769634 -0.282902 6.7896 178 150 100
-0.784121 -0.464338 6.92966 148 106 43
0.552037 -0.284209 6.844 82 51 9
-0.276315 0.0754011 7.00617 154 111 53
0.76743 -0.164968 6.79478 212 181 125
0.828355 0.0452476 6.64563 200 169 116
0.308399 -0.306192 6.90923 222 194 140
-0.829517 0.036806 6.92338 234 191 133
0.638297 -0.245992 6.82787 167 131 76
-0.452095 -0.32617 7.06389 250 215 150
-0.451789 -0.246546 7.11968 68 38 11
0.54538 0.107726 6.79402 203 169 124
0.908927 0.0739777 6.71454 96 60 16
0.95311 -0.139597 6.71368 121 100 78
0.873853 -0.411236 6.69566 79 58 20
0.899638 0.157935 6.69347 111 81 36
-0.564136 0.195344 7.02358 229 191 142
0.793971 -0.0535446 6.73895 177 148 104
0.994807 -0.0250428 6.69105 120 98 74
0.447007 -0.171445 6.87169 211 178 119
0.92794 0.102251 6.70211 202 168 112
