ply
format ascii 1.0
element vertex 133
property float x
property float y
property float z
property uchar red
property uchar green
property uchar blue
end_header
-0.416311 0.334554 7.19475 9 3 0
0.663786 0.243823 6.93458 238 193 122
-0.221065 -0.125079 6.99153 213 184 139
-0.16751 -0.12259 6.98463 226 200 152
0.703108 -0.0418449 6.86599 84 53 9
0.243907 0.135171 7.07815 255 225 155
-0.530322 0.200585 7.1437 123 82 47
-0.263119 0.221126 7.12474 255 239 163
0.510259 0.228474 6.97623 117 80 39
0.789221 0.301981 6.93582 196 173 134
0.623619 0.285933 6.98422 220 190 139
0.214526 0.26965 7.07916 220 180 129
0.36049 -0.0607573 6.88275 243 208 142
-0.298992 -0.144336 6.98673 135 96 39
0.809237 -0.262097 6.6088 88 61 15
0.69151 -0.11804 6.81541 84 57 21
0.881215 -0.114188 6.66183 173 148 112
0.535478 -0.116993 6.82717 203 176 134
0.90257 -0.0769697 6.68217 171 145 108
0.0838409 -0.112662 6.96028 205 180 138
-0.0927485 -0.119088 6.98002 226 191 137
0.960299 0.043301 6.73148 165 141 105
0.0320288 0.0987669 7.12563 22 7 0
0.339036 0.132663 6.98145 120 87 53
0.723141 0.128667 6.90808 232 196 141
0.959002 0.276858 6.91761 185 158 113
0.524676 0.362897 7.03824 224 188 147
-0.186109 -0.357316 7.3493 120 76 12
0.635921 0.153697 6.9372 122 81 52
0.596073 0.288933 6.98737 37 19 3
1.00796 0.273476 6.91386 172 145 103
0.909906 0.318056 6.94669 191 164 126
-0.740952 0.383152 7.01787 233 202 160
-0.628399 -0.733728 7.91192 163 147 102
0.0321592 0.0951111 7.15523 20 6 0
0.996434 0.059891 6.72309 27 14 0
0.845045 -0.135758 6.72078 55 33 12
0.254832 -0.179826 6.88249 166 128 70
0.87175 -0.202604 6.58199 78 59 23
0.714906 -0.124944 6.79797 188 159 109
0.114198 -0.543352 7.79665 216 180 106
-0.580238 -0.722127 7.97091 15 6 3
1.07115 0.150285 6.67832 134 119 84
0.704331 0.106208 6.90575 107 71 28
0.803073 0.238951 6.8356 206 173 120
0.723122 0.273542 6.94649 193 154 106
-0.524509 0.275286 7.19926 83 64 53
0.588933 0.15155 6.93443 129 90 55
0.239486 0.305988 7.12961 143 128 108
1.03559 0.255503 6.89834 152 125 96
0.243644 -0.16397 6.88716 239 205 146
0.230213 0.241879 7.0482 255 215 166
-0.0685419 0.207868 7.09267 177 127 66
0.100691 -0.350548 7.31744 255 224 157
0.827847 -0.175236 6.7028 71 48 19
0.889393 -0.205407 6.53344 229 207 151
-0.485053 0.201675 7.13956 185 140 81
0.508173 0.165577 6.9618 144 105 59
-0.0495005 -0.143127 6.94025 229 196 148
-0.0248626 -0.130856 6.95916 80 50 10
-0.0971452 -0.187543 6.92349 255 250 176
-0.485098 -0.650393 7.95293 17 6 2
0.675598 -0.141756 6.80856 210 177 113
0.699673 0.158914 6.92396 93 60 20
0.554585 -0.11679 6.82367 219 187 137
-0.00267829 -0.213886 6.92328 192 149 77
0.238392 -0.130794 6.90595 217 182 128
0.723982 0.088533 6.90188 215 176 121
0.0293076 -0.178735 6.9112 255 248 172
0.246819 -0.198035 6.88339 255 235 166
0.171888 -0.169638 6.89526 255 223 154
0.49949 -0.169544 6.8184 240 205 140
0.831311 -0.19925 6.62857 168 143 104
-0.296452 -0.165393 6.95815 253 213 150
0.12611 -0.158073 6.90703 186 144 80
0.780594 -0.206598 6.62583 201 175 123
0.852676 -0.214179 6.59473 190 164 124
0.519141 0.247126 6.98847 211 175 127
0.72041 -0.0158113 6.84219 214 179 123
0.518173 -0.0181592 6.90518 242 203 139
0.788562 -0.0612109 6.70146 230 200 141
1.07199 0.121819 6.65437 69 49 20
0.759042 0.103992 6.86577 178 146 106
0.538577 0.155671 6.93596 152 112 63
0.813075 -0.0630558 6.75267 201 163 103
0.701712 0.13435 6.91804 115 82 34
0.794266 -0.130458 6.66674 186 153 97
0.678723 0.176767 6.93478 235 191 132
0.722077 0.17521 6.91841 226 185 128
1.03306 0.149735 6.71635 27 14 3
0.882361 0.31 6.92841 111 80 35
-0.138081 -0.188457 6.92038 255 233 163
0.531211 0.0804478 6.93613 154 117 64
0.520215 0.0662627 6.93109 228 190 136
0.529724 0.309808 7.00758 153 114 58
-0.234825 -0.198549 6.93857 255 255 189
0.769642 -0.00287814 6.75617 89 64 28
0.867242 0.281353 6.93334 211 172 120
0.942527 0.11137 6.86612 63 34 5
0.87573 -0.0856257 6.72638 43 27 1
0.884869 0.220263 6.91008 116 79 31
0.665147 0.159243 6.9361 136 98 53
0.75812 -0.186239 6.70896 90 70 34
0.174878 -0.185228 6.89412 172 125 68
0.678229 0.0989218 6.90919 205 164 111
0.870737 -0.0587907 6.76543 131 107 78
0.818516 -0.151347 6.71655 180 151 105
0.250704 -0.145946 6.89103 148 111 58
0.210357 -0.13511 6.91406 201 165 103
0.802569 -0.243227 6.62187 200 170 115
0.7575 -0.126102 6.71286 78 55 19
0.831746 -0.111097 6.76799 93 61 17
0.84654 -0.083499 6.78067 85 54 17
0.75392 -0.234634 6.66693 95 74 37
0.685835 -0.054508 6.87183 199 163 119
0.752817 -0.0429814 6.79715 173 144 103
0.882097 -0.0356345 6.77339 141 116 86
0.754994 -0.0142765 6.81356 173 144 101
0.211806 0.194783 7.04215 255 235 169
0.758758 -0.126984 6.71059 78 55 19
0.879745 0.24565 6.90867 124 91 41
0.916483 0.0300645 6.80572 125 102 75
0.756801 0.0128824 6.82422 172 142 105
0.48712 -0.154106 6.83861 142 107 51
0.520513 -0.162514 6.81153 160 126 68
0.591628 -0.11313 6.84998 193 155 98
0.0749306 -0.175712 6.90811 255 255 201
0.0628696 -0.162142 6.91207 195 155 91
0.2313 0.204345 7.03347 195 145 89
0.863892 -0.243268 6.56642 138 114 62
0.756129 0.288881 6.93787 120 97 70
0.334455 0.158135 6.96493 252 214 154
0.654749 -0.109916 6.84803 184 148 90
