ply
format ascii 1.0
element vertex 104
property float x
property float y
property float z
property uchar red
property uchar green
property uchar blue
end_header
0.895033 0.247957 7.61952 172 144 102
0.573514 0.513 7.79881 169 142 95
-0.377797 0.523091 7.89322 165 135 96
1.22458 -0.466793 7.04156 163 138 82
0.644085 0.470734 7.73772 5 3 2
0.742532 0.394304 7.68568 148 116 75
0.429191 -0.285618 7.07898 249 220 164
0.553101 0.141327 7.57944 149 122 76
-0.318478 0.549673 7.93972 9 4 6
-0.718368 0.429682 7.62161 165 135 95
0.559751 0.382645 7.70059 163 133 89
0.915163 -0.11831 7.00075 52 39 19
0.418016 -0.22218 6.98558 25 12 0
0.705077 -0.481846 7.40694 194 167 114
0.571682 -0.500792 7.48314 20 10 6
-0.499281 -0.617596 7.73851 231 206 148
0.985871 -0.635709 7.45129 199 178 126
-0.323755 0.347053 7.914 212 174 126
1.00245 0.176774 7.53176 163 140 110
1.08364 -0.318693 6.98382 47 28 8
-0.00508235 -0.379226 7.49004 35 13 0
0.836051 -0.437556 7.35363 45 24 2
0.878289 -0.50481 7.40763 201 174 123
-0.421429 -0.536612 7.70099 235 214 167
-0.582271 -0.707 7.77998 243 221 168
-0.605137 -0.747071 7.81821 59 40 23
-0.293785 0.399545 7.87407 32 14 0
-0.341533 0.307375 7.9383 14 10 4
1.23644 0.0735957 7.54015 168 142 114
-0.382962 0.0223187 7.69465 74 45 14
0.455847 -0.214149 6.96966 253 232 186
-0.762029 -0.390319 7.08894 250 214 160
-0.177486 -0.418033 7.54204 121 92 52
1.20851 -0.589268 7.09813 168 153 119
-0.452079 0.598829 7.88322 160 135 103
-0.264101 0.453533 7.86805 65 41 9
-0.211394 -0.383226 7.52682 64 33 0
-0.123732 -0.380262 7.51084 57 27 0
0.765538 0.419289 7.71634 156 137 112
-0.348307 0.374355 7.89106 77 48 17
-0.372393 0.264662 7.8425 184 167 143
-0.436498 0.229246 7.58553 203 171 125
0.55564 0.165583 7.58675 158 136 108
-0.384519 -0.0361563 7.716 65 35 6
0.469906 -0.193569 6.95577 36 21 1
-0.487056 -0.229728 7.20681 57 30 1
0.692135 -0.234799 6.9759 33 21 3
0.110661 -0.401253 7.47854 80 51 15
0.709525 -0.248901 6.97836 231 212 168
0.923869 -0.551966 7.44796 174 155 120
0.498391 0.132276 7.68756 150 132 102
0.425983 0.0414677 7.57615 169 142 101
-0.248344 0.356323 7.89826 173 133 83
0.282738 -0.162488 7.04769 121 102 67
-0.101806 0.32755 7.91018 16 2 0
-0.166951 -0.39477 7.52099 197 170 122
-0.0614245 0.446281 7.84558 51 31 4
-0.141539 -0.474294 7.59275 21 2 0
1.05965 -0.356138 7.07144 47 24 4
0.413422 0.0247981 7.57811 60 35 7
0.432736 0.0206475 7.57466 54 31 5
1.05152 -0.301213 6.97196 192 163 116
0.635429 -0.210542 6.95467 174 145 104
0.104709 -0.375598 7.47133 75 43 1
0.122297 0.476187 7.88591 138 109 67
0.896438 -0.193934 6.95491 32 17 2
0.00193422 0.366659 7.87914 115 86 50
-0.413871 0.161161 7.62211 185 156 120
0.000896823 -0.143938 7.10589 126 105 78
0.419125 0.00636936 7.57976 147 121 84
-0.48828 -0.050853 7.19033 82 58 31
0.358306 -0.00368652 7.59285 169 139 86
0.256029 0.480187 7.88382 156 128 87
0.705951 -0.133877 7.01997 57 44 30
0.851798 -0.373916 7.22552 226 195 143
0.462462 -0.461882 7.43308 192 167 111
0.503951 0.115771 7.60323 70 46 13
0.310676 -0.215875 7.06557 131 115 86
1.21966 -0.0787189 7.40268 177 148 99
1.15521 0.121944 7.49936 3 0 0
-0.365449 0.341246 7.91888 209 172 128
-0.333741 0.392477 7.87827 171 142 109
0.600082 0.398461 7.71643 72 47 20
0.639479 0.409853 7.72741 159 129 88
0.0239273 -0.0109442 7.65266 170 135 83
-0.763477 0.128913 7.25812 30 17 7
-0.155659 0.0392268 7.65719 63 36 4
0.253315 -0.372321 7.44008 147 113 55
0.403742 0.0932803 7.68142 129 96 49
0.412072 -0.171666 6.98264 115 96 59
0.440594 0.0565975 7.57599 64 38 9
0.491053 0.324707 7.80388 141 111 73
-0.721275 -0.319937 7.08882 101 73 32
-0.118026 0.130591 7.75937 1 0 0
-0.741053 0.0616254 7.28732 140 116 81
-0.548138 0.0725785 7.31654 68 43 19
-0.165728 -0.139323 7.13557 123 103 74
-0.321969 0.0404041 7.68468 78 45 11
-0.36927 0.575095 7.92454 126 107 87
0.398479 0.00817813 7.58785 147 119 81
0.860892 -0.149354 7.00987 63 42 14
0.4472 -0.160785 7.0028 36 19 0
-0.295325 0.0468651 7.68257 182 150 106
0.181517 0.370054 7.82361 66 36 8
