ply
format ascii 1.0
element vertex 63
property float x
property float y
property float z
property uchar red
property uchar green
property uchar blue
end_header
-0.401543 -0.212625 8.45615 115 79 34
-0.445435 0.425407 8.83627 9 3 0
-0.401543 -0.212625 8.45615 115 79 34
-0.138052 -0.123581 8.46047 226 200 152
0.894895 -0.0164038 8.22465 84 53 9
0.353385 0.190833 8.55843 255 225 155
0.643723 -0.674207 9.42653 169 150 96
0.668255 0.303681 8.39784 117 80 39
-0.539101 -0.278303 8.48973 141 98 46
-0.539101 -0.278303 8.48973 141 98 46
0.696595 -0.107886 8.18394 203 176 134
1.19378 0.0858149 8.03029 165 141 105
-0.156772 -0.40227 8.94276 120 76 12
-0.690552 -0.863709 9.73984 163 147 102
0.849729 -0.623315 9.21816 151 133 95
1.05869 -0.126765 8.0198 55 33 12
0.907525 -0.11509 8.13117 188 159 109
0.485883 -0.617678 9.45027 190 156 88
1.01121 0.316909 8.18444 206 173 120
1.10412 0.354335 8.29564 106 73 26
0.347919 0.396118 8.63974 143 128 108
-0.785656 0.465406 8.80555 234 190 137
-1.00391 -0.445894 8.18135 249 215 153
0.187723 -0.38907 8.86994 255 224 157
0.187723 -0.38907 8.86994 255 224 157
1.03811 -0.173583 7.99587 71 48 19
-0.950318 0.0412272 8.43468 171 133 83
0.00328989 -0.146392 8.38496 229 196 148
-0.51652 -0.76053 9.78966 17 6 2
0.920034 0.138639 8.27544 215 176 121
0.0974461 -0.187631 8.33529 255 248 172
0.355957 -0.207254 8.27598 255 235 166
0.266975 -0.174712 8.30055 255 223 154
0.654122 -0.170581 8.17316 240 205 140
0.654122 -0.170581 8.17316 240 205 140
-0.292651 -0.176942 8.43658 253 213 150
0.679032 0.326171 8.41516 211 175 127
0.677227 0.00967438 8.29269 242 203 139
0.991694 -0.0397954 7.99984 230 200 141
1.32202 0.178698 7.92134 69 49 20
-0.882956 -0.0958845 8.40934 179 134 83
-0.882956 -0.0958845 8.40934 179 134 83
0.960444 0.156921 8.22454 178 146 106
0.701418 0.216695 8.33954 152 112 63
-0.994397 0.389331 8.663 247 203 140
0.866974 0.243331 8.32491 235 191 132
-0.218245 -0.21552 8.4006 255 255 189
0.970559 0.0293736 8.07469 89 64 28
-0.722399 0.220679 8.64485 180 139 92
-0.722399 0.220679 8.64485 180 139 92
-0.547782 0.247617 8.76887 255 232 169
-0.574779 0.237656 8.75836 255 220 149
1.10647 0.455525 8.34147 4 0 0
-0.592336 -0.222702 8.49451 188 148 91
1.25011 0.301747 8.19977 127 105 81
1.14449 0.0705032 8.13196 125 102 75
0.957155 0.0485118 8.16756 172 142 105
0.639812 -0.152352 8.20156 142 107 51
0.639812 -0.152352 8.20156 142 107 51
0.678696 -0.161932 8.16151 160 126 68
0.151775 -0.183348 8.32688 255 255 201
0.459541 0.217786 8.39644 252 214 154
-0.844494 -0.096578 8.40321 177 136 83
