ply
format ascii 1.0
element vertex 89
property float x
property float y
property float z
property uchar red
property uchar green
property uchar blue
end_header
0.309641 -0.104333 3.46402 38 17 2
0.0714967 -0.178507 3.53309 16 3 0
-0.428401 -0.222299 3.46256 250 215 151
-0.13391 -0.136125 3.54426 112 79 33
0.201047 0.136162 3.47527 18 8 0
-0.108384 -0.11595 3.55025 196 167 122
0.325472 0.101231 3.45193 51 27 7
0.209507 -0.0844241 3.47438 226 194 134
-0.417901 -0.100883 3.46199 140 103 54
0.253266 0.134921 3.47185 232 192 128
-0.205278 -0.197374 3.564 27 9 0
0.497007 -0.208752 3.33987 228 209 150
0.442696 -0.226794 3.39205 203 177 118
0.362525 0.0818483 3.42618 232 189 120
0.119865 0.121859 3.51604 27 12 1
0.0071436 0.0807525 3.52056 255 228 163
0.299516 0.0157024 3.45926 99 64 17
0.397536 0.000703009 3.44308 217 182 128
0.328386 -0.00515078 3.46034 53 25 0
0.263872 0.0760158 3.47339 121 80 37
0.49919 -0.116744 3.38066 158 132 96
0.380756 -0.129733 3.44913 211 178 117
-0.14733 -0.140013 3.54361 254 223 166
0.13436 0.131265 3.51839 155 134 107
-0.24546 -0.147145 3.55638 253 220 150
0.488805 -0.138879 3.37852 164 139 103
-0.0947019 -0.146284 3.5343 126 94 55
0.417866 -0.191022 3.42938 182 161 116
0.119807 0.122157 3.51493 27 12 1
0.33935 0.109721 3.45106 232 201 147
0.125106 0.107233 3.50094 216 174 122
0.286819 0.096293 3.46314 76 44 2
0.134234 0.0888626 3.49394 240 205 155
-0.423712 0.0816473 3.45496 120 82 46
0.302368 0.116195 3.44581 231 195 138
0.281054 0.0776651 3.46397 73 40 6
0.388844 0.0100976 3.44832 97 61 24
-0.128002 -0.125313 3.54968 81 49 2
0.316823 -0.118377 3.457 206 177 135
-0.428782 -0.0734433 3.46312 242 205 137
-0.172474 -0.156517 3.55073 115 77 28
0.127378 -0.102243 3.51521 197 169 113
0.0273705 -0.184079 3.53933 9 3 0
0.29905 0.035548 3.45834 124 88 39
0.0652815 -0.0850637 3.70693 173 141 97
0.353072 0.004287 3.46117 227 188 128
0.426572 0.088858 3.40928 21 11 4
0.329067 0.0883465 3.44518 235 193 125
0.383038 0.0388568 3.44157 112 80 38
0.308698 0.0248341 3.45442 235 197 137
-0.436972 -0.0352695 3.46215 255 227 161
0.156277 -0.137839 3.49958 234 203 146
0.382956 0.0555298 3.4454 126 88 41
0.152431 -0.117722 3.5003 211 177 118
0.401908 -0.122028 3.44352 175 148 100
-0.381988 -0.140431 3.49194 160 117 62
-0.126688 -0.141631 3.54082 245 210 147
-0.421351 -0.205195 3.47036 149 109 49
0.284826 0.0881242 3.4606 205 172 131
0.152452 -0.132149 3.50027 108 80 30
-0.35609 0.00649036 3.51651 177 129 75
0.3383 0.0120346 3.45409 231 189 121
0.371836 0.0492969 3.44796 230 192 134
0.478032 0.0717161 3.42355 97 64 17
0.0178072 -0.129344 3.5213 250 214 153
0.286718 -0.00603449 3.47401 127 93 47
0.285946 -0.124218 3.4695 85 57 15
0.416515 0.00278955 3.43088 184 151 104
0.513779 -0.00525915 3.40635 140 113 88
-0.435354 0.0668935 3.45427 244 197 136
0.401188 -0.0589701 3.45017 212 179 123
0.0024159 -0.126418 3.52216 216 184 129
0.442602 -0.255842 3.39703 6 1 0
0.441931 -0.107678 3.38786 206 178 119
-0.254525 -0.162834 3.55872 163 126 70
0.47722 -0.202639 3.3666 176 153 113
0.394639 0.0463645 3.44113 218 179 124
0.519048 0.0279209 3.4149 48 24 0
0.523581 -0.199349 3.3334 178 155 106
0.479144 -0.0922922 3.40945 136 113 83
-0.11918 0.0569579 3.5405 255 244 172
0.457226 -0.18611 3.39255 74 51 11
0.332198 -0.103919 3.46467 174 138 81
0.473572 0.117912 3.41658 109 77 32
0.523123 0.0207118 3.40473 120 98 74
0.299979 -0.0453463 3.46479 163 129 73
0.500347 -0.0413347 3.41018 121 100 73
0.0168952 -0.132505 3.51916 242 205 140
0.32905 -0.155829 3.45654 164 123 60
