ply
format ascii 1.0
element vertex 89
property float x
property float y
property float z
property uchar red
property uchar green
property uchar blue
end_header
-1.19309 0.17877 11.8888 254 208 152
0.869516 0.0619651 8.31843 104 72 21
0.306893 0.0703112 8.80891 13 2 0
1.07012 0.0384035 7.91542 174 147 115
0.127631 -0.130827 8.6115 255 224 162
-0.0717372 -0.10422 8.7409 140 104 57
-0.56553 -0.881035 9.39957 188 170 131
0.117806 -0.418892 8.73884 254 221 155
1.07641 -0.59754 8.0967 152 139 93
0.249702 0.19613 9.21372 255 245 172
0.760895 0.267673 8.733 125 89 55
0.892091 0.276523 8.65604 101 66 28
0.936762 0.41043 8.83744 197 160 108
1.21897 0.418293 8.6592 187 158 117
0.702845 0.49728 9.19875 229 196 156
-0.773253 -1.02162 9.21804 175 163 124
0.458965 0.0329296 8.50857 241 207 144
1.06571 0.0102864 7.77187 42 25 4
0.448621 0.234345 8.93561 110 76 44
0.815439 0.269498 8.70004 118 82 49
1.27434 0.415553 8.62255 177 147 104
0.910632 0.438414 8.87871 16 6 2
0.743795 -0.698187 8.56931 149 132 89
1.16568 0.462477 8.76854 205 175 135
-0.680638 -0.951675 9.33137 178 157 106
0.389998 0.205632 9.07732 254 210 145
0.674889 0.0205894 8.27378 129 94 59
0.850818 0.276631 8.68902 134 94 50
1.29535 -0.141232 8.09437 166 134 80
0.494919 0.208129 8.87563 178 133 75
1.06523 0.0551803 8.01047 58 35 6
-0.51843 -0.744331 9.44498 143 101 40
0.871264 0.297512 8.70622 242 198 138
0.898353 0.313487 8.70306 130 91 42
0.391755 -0.742514 8.86479 184 153 88
0.212493 -0.450136 8.67239 254 230 168
0.893731 -0.150691 7.94057 172 148 111
-0.721248 -1.00723 9.2582 10 6 1
0.864203 0.461188 8.99883 16 7 4
0.926726 -0.365201 8.16363 164 139 101
0.320782 -0.351686 8.68492 133 94 39
0.370534 -0.344379 8.6406 126 89 38
0.242029 -0.430554 8.652 159 119 58
1.06153 0.0492441 7.84929 138 114 81
1.41252 0.136847 8.20852 160 132 95
1.06603 -0.0252376 7.64783 233 210 154
0.958805 -0.144385 7.64059 229 194 131
1.33992 -0.059591 8.05951 164 130 76
0.637334 -0.183889 8.14361 128 102 54
1.00122 0.0585263 8.14333 203 167 113
0.930705 -0.129369 7.69798 244 211 146
-1.17137 -0.51109 8.9927 254 226 169
0.994091 -0.100438 7.66799 241 215 156
0.818551 0.417167 8.95596 231 198 146
0.319302 -0.101953 8.39362 168 132 72
0.613498 -0.0684643 8.19043 249 211 149
0.661528 0.277649 8.83397 146 108 59
0.68736 0.0396302 8.33865 110 75 28
0.661939 -0.0130221 8.25737 216 183 137
0.488405 0.237958 8.89513 255 252 191
0.916593 0.247693 8.58112 239 202 147
0.717426 0.254143 8.71818 237 200 148
0.864372 0.0365777 8.25889 117 82 34
0.507791 0.185056 8.85441 253 212 154
0.307125 -0.0856045 8.43515 251 216 152
0.922719 0.299986 8.65637 225 184 129
1.14813 -0.597845 8.06099 3 0 0
0.956229 0.230716 8.47373 192 158 118
0.93503 0.11107 8.26081 177 146 107
0.912849 0.203157 8.52077 216 180 125
1.04288 -0.0313517 7.69372 99 81 40
0.44543 0.266747 8.96684 255 220 162
0.99512 0.169546 8.18827 216 184 132
0.905027 -0.487866 8.36379 158 132 86
0.895394 0.0981354 8.31917 219 183 128
0.318383 0.304244 9.23432 197 147 91
-0.360616 0.296875 10.1447 255 245 176
0.838598 0.297247 8.71782 241 199 135
0.307298 -0.122203 8.36995 255 240 171
1.18933 0.391785 8.63646 126 91 44
1.04637 -0.121597 7.57079 239 210 146
1.11095 0.420526 8.73676 218 179 128
0.978639 0.431556 8.81085 124 101 73
1.13595 0.504879 8.82603 6 1 0
0.602025 -0.133499 8.1061 184 138 74
-0.249435 -0.435775 9.02013 255 210 131
0.32398 -0.147595 8.34766 182 144 88
0.60958 -0.0914353 8.14112 177 139 79
1.1363 0.45621 8.77253 115 83 36
