ply
format ascii 1.0
element vertex 60
property float x
property float y
property float z
property uchar red
property uchar green
property uchar blue
end_header
0.632442 -0.328925 7.09075 181 156 123
0.882926 -0.555792 7.01551 203 173 115
-0.191604 -0.303167 7.2525 175 149 114
0.647316 -0.115305 7.03273 52 25 0
0.647316 -0.115305 7.03273 52 25 0
-0.731697 -0.201883 7.05505 169 126 66
0.0123223 -0.355027 7.21623 109 77 35
-0.457176 -0.337731 7.28211 70 42 16
0.967711 -0.397317 6.95875 162 139 104
0.634673 -0.439345 7.17277 230 195 123
-0.810742 -0.0871209 6.94467 255 238 169
0.492271 -0.440192 7.15919 31 10 0
0.660181 0.09424 6.95322 229 199 152
0.660181 0.09424 6.95322 229 199 152
0.829678 0.0391852 6.88502 22 13 2
0.68548 -0.0385463 6.99873 121 82 42
-0.807609 -0.289207 7.03128 240 203 137
-0.0975806 -0.295327 7.2371 217 192 149
0.273967 -0.389819 7.241 251 215 144
0.261401 0.15629 7.06227 140 119 94
0.21873 0.153844 7.0706 171 146 107
0.8249 0.0899106 6.89569 214 190 144
0.515819 0.0382129 7.01089 110 71 27
0.267905 0.182112 7.07419 173 152 123
-0.804602 -0.00498443 6.90691 106 72 32
-0.804602 -0.00498443 6.90691 106 72 32
0.633021 0.0778703 6.9537 44 21 0
0.588972 0.101177 6.94388 228 194 135
-0.496632 0.127807 7.15428 40 23 11
-0.265724 -0.294314 7.26907 67 38 2
0.572551 -0.335152 7.11454 85 56 12
0.0573191 -0.357818 7.22087 254 220 157
0.314531 -0.342674 7.17828 104 67 22
0.666453 -0.0863009 7.03043 234 192 124
1.0347 -0.00494738 6.91959 41 20 0
0.583573 -0.208262 7.0716 227 195 144
0.798593 -0.337438 7.07646 177 150 101
0.606207 -0.0640672 7.0035 239 200 143
-0.431209 -0.29594 7.34599 146 111 68
-0.431209 -0.29594 7.34599 146 111 68
-0.71514 -0.396102 7.13113 149 105 53
-0.824455 -0.218791 7.00032 255 227 166
-0.282603 0.0326393 7.13079 151 107 56
0.00760856 0.0334326 7.09773 153 108 62
0.0512059 -0.306283 7.21842 72 47 10
0.986637 -0.354055 6.94863 153 131 95
0.986637 -0.354055 6.94863 153 131 95
-0.0634464 -0.334604 7.22223 166 138 86
-0.239244 -0.331185 7.2543 103 70 35
-0.488693 0.00536727 7.15591 237 195 147
0.534972 0.0512495 6.99725 224 185 127
0.594292 -0.189933 7.0667 143 110 57
0.909838 -0.479625 7.00556 77 54 18
0.766816 -0.0249769 6.92482 217 180 124
0.766816 -0.0249769 6.92482 217 180 124
-0.570841 0.145533 7.0585 223 187 140
0.0237916 -0.330297 7.2114 190 163 106
0.658694 -0.398283 7.11343 147 113 54
0.831504 -0.124913 6.93184 76 50 13
0.772535 0.0215911 6.94458 213 176 121
