ply
format ascii 1.0
element vertex 83
property float x
property float y
property float z
property uchar red
property uchar green
property uchar blue
end_header
0.290601 0.100319 8.96664 113 80 46
0.00183837 0.102414 8.99713 146 114 74
0.841904 0.528964 8.95717 147 113 72
0.931166 0.457326 8.95225 8 5 3
1.49543 -0.402677 8.45041 161 131 82
1.40848 -0.0780328 8.70349 174 143 90
1.46427 -0.27607 8.42042 158 131 84
-0.819575 0.525976 8.51242 33 20 9
-0.840957 0.478955 8.51691 165 135 92
-0.169179 0.184116 9.01847 178 144 99
1.14443 0.289215 8.88522 15 6 1
-0.336096 0.536183 9.00194 191 157 115
-0.441974 -0.0643191 9.04526 33 27 18
-0.577107 -0.318092 8.39521 47 33 20
1.02675 -0.362057 8.12471 33 21 2
-0.573467 -0.657155 9.31335 224 204 162
1.28866 -0.470009 8.17569 65 45 8
-0.556189 0.762483 8.88376 157 128 101
-0.338541 0.603599 8.9604 64 37 12
-0.422166 0.459047 9.04993 19 11 7
0.917224 0.359781 8.78549 40 24 0
0.519722 0.199459 8.96012 173 144 98
1.41288 0.129578 8.75103 168 144 111
-0.460819 0.0631501 8.95018 80 50 14
-0.895105 0.0114018 8.30329 158 132 94
-0.354592 -0.0255143 9.07602 186 147 94
-0.104174 0.596039 8.95372 55 32 4
-0.368922 0.544569 8.98123 48 23 0
-0.148299 0.499745 9.02268 179 141 97
0.49286 0.492222 8.99325 138 111 80
-0.460649 0.00372633 9.01516 73 45 9
-0.561739 -0.375982 8.45269 63 35 13
0.477652 0.0760189 8.82029 163 133 93
-0.596754 -0.35438 8.3313 187 162 124
0.471988 0.0378501 8.85556 157 126 91
0.449255 0.0402925 8.86204 148 121 80
0.464738 0.0574638 8.85483 65 43 9
-0.198302 0.0777307 8.92304 65 38 9
1.53821 -0.48 8.48809 5 0 0
-0.415652 0.536145 8.99471 179 146 108
-0.106213 0.130975 8.90989 105 75 33
-0.419815 0.200969 8.97815 157 121 88
-0.891055 0.0458957 8.32514 36 19 4
0.17358 0.152359 8.90069 72 47 21
-0.295533 0.0574737 8.94114 79 50 18
-0.359789 0.0897489 8.93772 188 155 107
-0.390411 0.0819761 8.93681 81 52 12
-0.158092 0.0571293 8.93314 67 43 10
1.41517 0.0073542 8.71732 176 148 108
-0.641959 -0.0046421 8.40126 61 40 15
-0.169739 -0.0439965 9.08552 9 0 0
-0.301657 0.599821 8.948 178 144 102
-0.102394 0.64777 8.9586 74 48 14
-0.119595 0.703961 9.08099 153 128 95
0.583344 0.702001 8.96066 65 42 11
1.03865 -0.310364 8.11902 37 23 3
-0.295918 0.058343 8.92302 79 50 18
0.557823 0.518205 8.92436 51 33 18
-0.827996 -0.520389 8.31899 99 72 32
1.28613 -0.494792 8.19932 158 138 91
0.351607 -0.290261 8.20667 128 109 74
1.06704 0.407289 8.96317 13 7 2
1.07252 -0.322644 8.09506 163 144 101
1.4937 -0.34899 8.37583 139 122 96
0.508643 -0.331283 8.15149 32 17 1
0.0169866 -0.315508 8.31607 24 10 0
1.53572 -0.476368 8.50128 9 2 0
0.984915 -0.297211 8.17738 69 49 18
-0.375208 0.598245 8.95236 172 145 113
0.462106 0.584293 8.92137 74 50 16
-0.639595 -0.271193 8.28999 50 30 5
0.690868 0.567216 8.94369 138 110 82
0.817621 -0.24209 8.17065 147 128 96
-0.0994156 0.313642 5.97866 17 4 0
0.6656 0.533417 8.87995 70 44 20
0.336779 -0.335242 8.24667 34 17 1
-0.169234 -0.0407368 9.05598 9 0 0
0.494532 0.0943105 8.81132 69 47 14
0.488254 0.0525757 8.83273 51 28 0
0.949618 -0.295594 8.1808 72 48 20
0.498407 0.540445 8.9273 130 103 69
-0.311311 0.13202 8.92188 192 161 115
0.243133 0.517379 8.99667 83 58 28
