ply
format ascii 1.0
element vertex 181
property float x
property float y
property float z
property uchar red
property uchar green
property uchar blue
end_header
-0.23801 0.223926 6.06353 75 44 12
-0.172804 0.239209 6.07055 194 162 116
-0.172804 0.239209 6.07055 194 162 116
0.192687 0.264536 6.10636 47 30 6
-0.154263 -0.333586 5.87274 234 208 159
-0.172077 0.283346 6.06908 70 45 13
-0.141496 -0.325201 5.87071 82 53 12
-0.141496 -0.325201 5.87071 82 53 12
-0.0541644 0.309206 6.1176 165 137 98
0.778603 -0.523147 5.81528 207 182 131
0.966759 -0.405894 5.58742 174 157 119
0.0265007 -0.286792 5.84706 201 165 109
0.857571 -0.39822 5.7023 153 132 93
0.857571 -0.39822 5.7023 153 132 93
0.667163 -0.397811 5.82248 208 184 125
0.677244 -0.465091 5.82946 6 2 0
0.213204 -0.013246 5.59046 26 9 0
0.469805 0.30719 6.13632 177 150 104
0.469805 0.30719 6.13632 177 150 104
-0.449705 -0.214747 5.64217 156 124 73
0.59854 -0.155889 5.59515 227 193 129
0.402469 -0.0477324 5.52861 254 226 176
0.469798 0.307784 6.13279 175 148 104
0.469798 0.307784 6.13279 175 148 104
0.526869 0.292996 6.08589 3 2 2
0.686873 -0.311251 5.73407 197 169 119
0.526869 0.292996 6.08589 3 2 2
-0.385804 -0.16807 5.65633 151 115 68
0.560782 -0.0836618 5.54987 31 16 1
0.627803 -0.110829 5.55551 56 33 8
0.224007 -0.074545 5.60465 203 173 129
0.25523 -0.0737036 5.59621 153 126 97
1.02834 -0.217156 5.63857 161 133 84
0.550931 -0.268897 5.72383 232 201 143
-0.611072 -0.28216 5.52551 255 233 168
-0.0484881 -0.347808 5.90577 134 108 71
-0.28337 -0.393472 5.9099 11 6 3
-0.36964 -0.109576 5.63447 98 61 20
0.82593 -0.120751 5.52737 92 69 33
0.458129 -0.405482 5.86671 11 8 2
0.931763 -0.439579 5.65645 185 158 99
-0.345092 -0.114249 5.64801 119 78 39
-0.613583 -0.533356 5.84592 57 40 25
0.142271 -0.25883 5.84192 130 105 68
0.142271 -0.25883 5.84192 130 105 68
-0.254608 0.33743 6.0377 187 160 126
-0.0889112 -0.239227 5.85947 54 27 1
0.669666 -0.221373 5.64194 224 196 145
0.561736 -0.215633 5.68033 55 26 0
-0.147177 0.193958 6.10267 125 89 44
1.01716 -0.115031 5.69085 151 123 76
1.01716 -0.115031 5.69085 151 123 76
0.527018 -0.194359 5.64399 247 215 160
0.659513 -0.153711 5.57982 222 188 133
0.648421 -0.212274 5.66714 45 23 3
0.189998 -0.335626 5.86577 253 246 190
0.0852012 -0.337225 5.87787 218 183 124
-0.606822 -0.397804 5.77453 252 224 160
0.527621 -0.194502 5.64554 247 215 160
0.774942 -0.503076 5.79692 190 165 109
-0.471625 -0.573242 5.98598 249 220 157
-0.0287401 0.232088 6.08464 182 150 106
0.856869 -0.249999 5.62237 134 114 87
-0.211649 0.34308 6.07863 6 5 0
0.221757 0.286887 6.11527 135 105 63
0.459441 0.237022 6.05326 167 139 100
0.133174 0.191465 6.11174 201 164 108
-0.00694444 0.19371 6.12468 174 136 80
-0.0657633 0.195495 6.11057 182 141 86
-0.517436 -0.42723 5.80233 158 119 60
-0.517436 -0.42723 5.80233 158 119 60
0.368571 0.185176 6.1265 182 151 107
0.576512 -0.0958404 5.55312 236 216 168
-0.132097 -0.291656 5.85089 201 171 119
0.0527814 -0.298769 5.84696 67 35 0
-0.372987 -0.0820252 5.61603 55 28 9
0.142746 0.0610106 8.06565 161 132 85
0.992172 -0.0950486 5.69756 161 143 109
-0.373753 -0.0331286 5.59647 38 21 13
0.683479 -0.363855 5.78608 81 52 13
-0.373753 -0.0331286 5.59647 38 21 13
0.340973 -0.064988 5.54599 24 12 0
0.0629685 -0.33627 5.86309 111 78 30
-0.316623 -0.337922 5.88245 235 199 140
-0.113803 -0.354238 5.90665 226 192 133
0.879934 -0.339392 5.63194 151 133 103
0.512844 -0.339455 5.8023 83 58 21
0.879934 -0.339392 5.63194 151 133 103
0.497341 -0.0775762 5.53339 33 14 0
-0.13586 -0.306257 5.86348 81 47 2
-0.150975 -0.293795 5.85801 215 183 126
-0.31799 -0.256946 5.85747 64 34 3
-0.16516 -0.282186 5.85507 59 29 0
-0.0961514 -0.280516 5.85289 54 24 0
-0.0961514 -0.280516 5.85289 54 24 0
-0.00179267 -0.284332 5.86158 32 14 0
-0.00179267 -0.284332 5.86158 32 14 0
-0.00179267 -0.284332 5.86158 32 14 0
0.141851 -0.288243 5.84283 75 60 39
0.544395 -0.321928 5.76771 34 15 2
-0.608759 -0.233933 5.48766 128 96 55
0.696805 -0.397046 5.81008 201 171 116
0.454996 -0.399457 5.84014 13 9 3
0.731054 -0.440186 5.81955 174 155 114
0.767609 -0.396302 5.73704 192 169 123
-0.576979 -0.42545 5.73724 116 81 34
-0.353451 -0.467387 5.96062 32 22 12
-0.576979 -0.42545 5.73724 116 81 34
-0.399134 -0.508559 5.98249 240 213 154
0.20977 -0.0439901 5.59774 23 8 0
-0.480845 -0.526459 5.92428 143 109 50
0.383534 -0.0380531 5.53325 32 19 1
0.953931 0.0313937 5.93949 168 146 109
0.598337 -0.199518 5.6687 224 191 134
0.888616 0.0512568 5.92094 160 137 105
0.852122 0.0606634 5.90496 178 154 117
0.794915 0.128153 5.96594 16 8 1
0.833165 0.0851081 5.92518 11 8 0
0.806224 0.101334 5.95754 154 134 102
0.773285 0.13841 5.99767 167 144 114
-0.310236 0.186167 5.85353 207 173 128
0.373502 -0.0586802 5.54691 253 222 164
-0.197329 0.243508 6.06304 36 16 0
0.504054 -0.104886 5.54727 236 207 148
0.542405 -0.113009 5.56624 45 26 2
0.542405 -0.113009 5.56624 45 26 2
-0.0543027 0.308901 6.11912 165 137 98
0.0397644 -0.0998456 5.63066 196 169 126
-0.590525 -0.160972 5.45068 250 211 149
-0.590525 -0.160972 5.45068 250 211 149
0.768962 -0.438187 5.74342 182 158 106
0.853583 -0.2158 5.61263 42 20 3
-0.336266 -0.432763 5.96289 245 223 171
-0.336266 -0.432763 5.96289 245 223 171
0.535067 -0.232683 5.67312 243 212 155
0.324676 -0.366397 5.86376 24 8 0
0.471847 -0.0483765 5.52036 235 206 161
0.471847 -0.0483765 5.52036 235 206 161
-0.62364 -0.216317 5.4685 241 211 154
-0.141276 -0.313645 5.86549 113 85 46
0.755371 -0.349157 5.66863 207 182 133
-0.316343 -0.314152 5.87294 69 43 15
0.666939 -0.332195 5.7833 34 18 2
0.332873 -0.341609 5.85283 197 168 119
0.17901 0.22607 6.10321 181 149 105
0.128573 -0.0103696 5.59717 54 37 13
-0.175467 -0.241553 5.85368 57 32 1
-0.0190905 0.27532 6.08972 52 31 7
-0.0190905 0.27532 6.08972 52 31 7
0.0803296 0.304469 6.11423 155 124 85
0.725474 -0.217397 5.54202 200 173 124
-0.091437 0.0523429 5.99197 135 116 81
0.805288 -0.14148 5.5539 206 175 122
0.0121993 -0.0150325 5.61034 125 107 79
0.791586 -0.355432 5.75221 64 38 7
0.416238 -0.263679 5.7567 204 176 121
-0.487593 0.370709 5.83788 28 17 7
0.684437 -0.276555 5.70899 216 184 134
0.927898 0.0600918 5.93404 5 1 0
-0.0381768 -0.324452 5.8604 167 141 89
0.813507 -0.343595 5.71816 134 112 81
0.804322 -0.366887 5.74615 141 116 86
-0.226862 0.240037 6.0566 168 140 106
-0.226862 0.240037 6.0566 168 140 106
-0.551999 0.198348 5.501 24 11 6
0.877913 -0.131929 5.5324 177 155 111
-0.359744 -0.124811 5.64939 237 198 149
0.826118 -0.575724 5.83909 21 9 0
0.697597 -0.0303992 5.58466 62 43 20
0.520473 0.248425 6.07375 156 127 84
-0.296232 0.119965 5.93196 174 146 110
0.739911 -0.420634 5.79194 69 49 15
-0.271739 0.388215 6.04523 6 4 3
-0.0113888 0.233023 6.08401 189 156 108
0.491901 0.243239 6.07615 73 47 21
0.616959 -0.0850266 5.55047 58 41 19
-0.476912 -0.114007 5.50817 255 221 169
-0.0356063 0.0666473 5.98863 8 4 0
0.617017 -0.0840054 5.54635 57 37 19
0.813307 -0.400121 5.73905 55 40 20
0.338873 -0.0244609 5.54985 116 97 65
